ply
format ascii 1.0
comment VCGLIB generated
element vertex 1129
property float x
property float y
property float z
property uchar red
property uchar green
property uchar blue
property uchar alpha
element face 0
property list uchar int vertex_indices
end_header
0.126288 0 0.0874303 0 0 255 255 
0.126288 -0.00971448 0.0971448 0 0 255 255 
0.136003 -0.019429 0.0971448 0 0 255 255 
0.126288 -0.00971448 0.0874303 0 0 255 255 
0.116574 -0.019429 0.0971448 0 0 255 255 
0.116574 -0.00971448 0.106859 0 0 255 255 
0.126288 -0.00971448 0.106859 0 0 255 255 
0.136003 -0.00971448 0.106859 0 0 255 255 
0.136003 0 0.106859 0 0 255 255 
0.136003 0 0.116574 0 0 255 255 
0.136003 -0.0388579 0.0777159 0 0 255 255 
0.136003 -0.019429 0.0874303 0 0 255 255 
0.145717 -0.019429 0.0874303 0 0 255 255 
0.145717 -0.0291434 0.0971448 0 0 255 255 
0.145717 -0.0291434 0.0777159 0 0 255 255 
0.145717 -0.0291434 0.0874303 0 0 255 255 
0.155432 -0.0388579 0.0971448 0 0 255 255 
0.155432 -0.0291434 0.0874303 0 0 255 255 
0.155432 -0.0291434 0.0971448 0 0 255 255 
0.155432 -0.019429 0.0971448 0 0 255 255 
0.136003 -0.0388579 0.116574 0 0 255 255 
0.145717 -0.0291434 0.106859 0 0 255 255 
0.136003 -0.019429 0.116574 0 0 255 255 
0.155432 -0.0388579 0.106859 0 0 255 255 
0.155432 -0.0291434 0.106859 0 0 255 255 
0.155432 -0.0291434 0.116574 0 0 255 255 
0.136003 0 0.0874303 0 0 255 255 
0.136003 -0.00971448 0.0874303 0 0 255 255 
0.145717 -0.00971448 0.0777159 0 0 255 255 
0.145717 -0.019429 0.0971448 0 0 255 255 
0.145717 -0.00971448 0.0874303 0 0 255 255 
0.155432 -0.019429 0.0874303 0 0 255 255 
0.155432 -0.00971448 0.0874303 0 0 255 255 
0.155432 -0.00971448 0.0971448 0 0 255 255 
0.155432 -0.00971448 0.0777159 0 0 255 255 
0.155432 0 0.0874303 0 0 255 255 
0.145717 -0.00971448 0.0971448 0 0 255 255 
0.155432 0 0.0971448 0 0 255 255 
0.145717 -0.00971448 0.106859 0 0 255 255 
0.136003 -0.019429 0.106859 0 0 255 255 
0.145717 -0.019429 0.106859 0 0 255 255 
0.145717 -0.00971448 0.116574 0 0 255 255 
0.136003 -0.00971448 0.0971448 0 0 255 255 
0.136003 0 0.0971448 0 0 255 255 
0.155432 -0.019429 0.106859 0 0 255 255 
0.155432 -0.00971448 0.106859 0 0 255 255 
0.155432 0 0.106859 0 0 255 255 
0.116574 -0.0291434 0.136003 0 0 255 255 
0.116574 -0.0291434 0.126288 0 0 255 255 
0.126288 -0.019429 0.136003 0 0 255 255 
0.126288 -0.0291434 0.126288 0 0 255 255 
0.136003 -0.0388579 0.126288 0 0 255 255 
0.126288 -0.0388579 0.126288 0 0 255 255 
0.126288 -0.0291434 0.136003 0 0 255 255 
0.126288 -0.0291434 0.116574 0 0 255 255 
0.136003 -0.0291434 0.126288 0 0 255 255 
0.126288 -0.019429 0.126288 0 0 255 255 
0.116574 -0.0291434 0.145717 0 0 255 255 
0.126288 -0.0388579 0.145717 0 0 255 255 
0.116574 -0.0388579 0.145717 0 0 255 255 
0.116574 -0.0291434 0.155432 0 0 255 255 
0.116574 -0.019429 0.155432 0 0 255 255 
0.126288 -0.019429 0.145717 0 0 255 255 
0.126288 -0.019429 0.155432 0 0 255 255 
0.136003 -0.0291434 0.136003 0 0 255 255 
0.136003 -0.0291434 0.145717 0 0 255 255 
0.126288 -0.0291434 0.155432 0 0 255 255 
0.136003 -0.0291434 0.155432 0 0 255 255 
0.136003 -0.019429 0.145717 0 0 255 255 
0.126288 -0.0291434 0.145717 0 0 255 255 
0.136003 -0.019429 0.155432 0 0 255 255 
0.116574 -0.00971448 0.126288 0 0 255 255 
0.126288 -0.00971448 0.116574 0 0 255 255 
0.126288 0 0.126288 0 0 255 255 
0.116574 0 0.126288 0 0 255 255 
0.126288 -0.00971448 0.136003 0 0 255 255 
0.126288 -0.00971448 0.126288 0 0 255 255 
0.136003 -0.00971448 0.116574 0 0 255 255 
0.116574 -0.00971448 0.155432 0 0 255 255 
0.126288 -0.00971448 0.155432 0 0 255 255 
0.126288 0 0.155432 0 0 255 255 
0.126288 0 0.136003 0 0 255 255 
0.126288 0 0.145717 0 0 255 255 
0.136003 -0.00971448 0.136003 0 0 255 255 
0.136003 0 0.145717 0 0 255 255 
0.126288 -0.00971448 0.145717 0 0 255 255 
0.136003 -0.00971448 0.145717 0 0 255 255 
0.136003 -0.0291434 0.116574 0 0 255 255 
0.136003 -0.019429 0.126288 0 0 255 255 
0.145717 -0.019429 0.126288 0 0 255 255 
0.145717 -0.0291434 0.126288 0 0 255 255 
0.145717 -0.0291434 0.136003 0 0 255 255 
0.155432 -0.0388579 0.126288 0 0 255 255 
0.155432 -0.0388579 0.136003 0 0 255 255 
0.155432 -0.0291434 0.126288 0 0 255 255 
0.145717 -0.0291434 0.116574 0 0 255 255 
0.145717 -0.0388579 0.145717 0 0 255 255 
0.136003 -0.0388579 0.155432 0 0 255 255 
0.145717 -0.0291434 0.155432 0 0 255 255 
0.145717 -0.0291434 0.145717 0 0 255 255 
0.155432 -0.0291434 0.136003 0 0 255 255 
0.155432 -0.0291434 0.145717 0 0 255 255 
0.155432 -0.019429 0.136003 0 0 255 255 
0.155432 -0.019429 0.145717 0 0 255 255 
0.155432 -0.0291434 0.155432 0 0 255 255 
0.155432 -0.019429 0.155432 0 0 255 255 
0.145717 -0.019429 0.116574 0 0 255 255 
0.136003 -0.019429 0.136003 0 0 255 255 
0.136003 -0.00971448 0.126288 0 0 255 255 
0.155432 -0.019429 0.116574 0 0 255 255 
0.155432 -0.019429 0.126288 0 0 255 255 
0.145717 -0.00971448 0.136003 0 0 255 255 
0.145717 -0.00971448 0.126288 0 0 255 255 
0.155432 -0.00971448 0.116574 0 0 255 255 
0.155432 -0.00971448 0.126288 0 0 255 255 
0.155432 0 0.126288 0 0 255 255 
0.145717 -0.019429 0.136003 0 0 255 255 
0.145717 -0.019429 0.145717 0 0 255 255 
0.145717 -0.019429 0.155432 0 0 255 255 
0.145717 -0.00971448 0.155432 0 0 255 255 
0.145717 -0.00971448 0.145717 0 0 255 255 
0.136003 -0.00971448 0.155432 0 0 255 255 
0.145717 0 0.155432 0 0 255 255 
0.155432 -0.00971448 0.136003 0 0 255 255 
0.145717 0 0.136003 0 0 255 255 
0.155432 -0.00971448 0.145717 0 0 255 255 
0.155432 -0.00971448 0.155432 0 0 255 255 
0.155432 0 0.155432 0 0 255 255 
0.00971448 0 -0.155432 0 0 255 255 
0.00971448 0.00971448 -0.155432 0 0 255 255 
0 0 -0.136003 0 0 255 255 
0 0.019429 -0.136003 0 0 255 255 
0.00971448 0 -0.145717 0 0 255 255 
0.00971448 0.00971448 -0.145717 0 0 255 255 
0.019429 0.00971448 -0.155432 0 0 255 255 
0.019429 0.019429 -0.155432 0 0 255 255 
0.00971448 0.00971448 -0.136003 0 0 255 255 
0.00971448 0.00971448 -0.126288 0 0 255 255 
0.00971448 0.00971448 -0.116574 0 0 255 255 
0.019429 0.00971448 -0.126288 0 0 255 255 
0.019429 0.019429 -0.126288 0 0 255 255 
0.019429 0.00971448 -0.116574 0 0 255 255 
0 0.019429 -0.155432 0 0 255 255 
0.00971448 0.019429 -0.155432 0 0 255 255 
0 0.0388579 -0.155432 0 0 255 255 
0.00971448 0.0291434 -0.145717 0 0 255 255 
0.00971448 0.0388579 -0.155432 0 0 255 255 
0 0.0291434 -0.136003 0 0 255 255 
0 0.0388579 -0.136003 0 0 255 255 
0.00971448 0.0388579 -0.136003 0 0 255 255 
0.00971448 0.0291434 -0.155432 0 0 255 255 
0.00971448 0.019429 -0.145717 0 0 255 255 
0.019429 0.019429 -0.145717 0 0 255 255 
0.00971448 0.0291434 -0.136003 0 0 255 255 
0.00971448 0.019429 -0.136003 0 0 255 255 
0.00971448 0.0291434 -0.116574 0 0 255 255 
0 0.0291434 -0.126288 0 0 255 255 
0 0.0388579 -0.116574 0 0 255 255 
0.00971448 0.019429 -0.126288 0 0 255 255 
0.019429 0.0291434 -0.126288 0 0 255 255 
0.019429 0.0291434 -0.116574 0 0 255 255 
0.019429 0.0291434 -0.136003 0 0 255 255 
0.00971448 0.0291434 -0.126288 0 0 255 255 
0.019429 0.00971448 -0.145717 0 0 255 255 
0.0291434 0.00971448 -0.155432 0 0 255 255 
0.0291434 0.019429 -0.145717 0 0 255 255 
0.0291434 0 -0.145717 0 0 255 255 
0.0388579 0.00971448 -0.145717 0 0 255 255 
0.0388579 0.00971448 -0.155432 0 0 255 255 
0.0291434 0.00971448 -0.145717 0 0 255 255 
0.0388579 0.019429 -0.145717 0 0 255 255 
0.0291434 0 -0.126288 0 0 255 255 
0.019429 0.00971448 -0.136003 0 0 255 255 
0.0291434 0.00971448 -0.136003 0 0 255 255 
0.0291434 0.019429 -0.136003 0 0 255 255 
0.0291434 0.00971448 -0.126288 0 0 255 255 
0.0291434 0.00971448 -0.116574 0 0 255 255 
0.0388579 0.00971448 -0.126288 0 0 255 255 
0.0291434 0.019429 -0.126288 0 0 255 255 
0.0388579 0.00971448 -0.136003 0 0 255 255 
0.019429 0.019429 -0.136003 0 0 255 255 
0.019429 0.0291434 -0.155432 0 0 255 255 
0.0291434 0.0291434 -0.155432 0 0 255 255 
0.0291434 0.0388579 -0.155432 0 0 255 255 
0.0291434 0.0388579 -0.145717 0 0 255 255 
0.019429 0.0291434 -0.145717 0 0 255 255 
0.0291434 0.0291434 -0.145717 0 0 255 255 
0.0291434 0.019429 -0.155432 0 0 255 255 
0.0388579 0.019429 -0.155432 0 0 255 255 
0.0388579 0.0291434 -0.136003 0 0 255 255 
0.0388579 0.0291434 -0.155432 0 0 255 255 
0.0388579 0.0388579 -0.155432 0 0 255 255 
0.0291434 0.0291434 -0.136003 0 0 255 255 
0.0291434 0.0291434 -0.126288 0 0 255 255 
0.0291434 0.019429 -0.116574 0 0 255 255 
0.0291434 0.0388579 -0.136003 0 0 255 255 
0.0291434 0.0291434 -0.116574 0 0 255 255 
0.0388579 0.0388579 -0.136003 0 0 255 255 
0.0388579 0.0388579 -0.116574 0 0 255 255 
0.00971448 0 -0.106859 0 0 255 255 
0 0.019429 -0.116574 0 0 255 255 
0 0.019429 -0.106859 0 0 255 255 
0.00971448 0.00971448 -0.106859 0 0 255 255 
0.00971448 0.019429 -0.116574 0 0 255 255 
0.019429 0 -0.116574 0 0 255 255 
0.019429 0.00971448 -0.106859 0 0 255 255 
0.00971448 0 -0.0971448 0 0 255 255 
0.00971448 0.00971448 -0.0971448 0 0 255 255 
0.00971448 0.019429 -0.0971448 0 0 255 255 
0.00971448 0.00971448 -0.0874303 0 0 255 255 
0 0 -0.0777159 0 0 255 255 
0 0.00971448 -0.0971448 0 0 255 255 
0 0.019429 -0.0874303 0 0 255 255 
0.019429 0 -0.0777159 0 0 255 255 
0.019429 0.00971448 -0.0777159 0 0 255 255 
0.00971448 0.019429 -0.0874303 0 0 255 255 
0.00971448 0.00971448 -0.0777159 0 0 255 255 
0.019429 0.019429 -0.0874303 0 0 255 255 
0.00971448 0.019429 -0.106859 0 0 255 255 
0.00971448 0.0291434 -0.106859 0 0 255 255 
0.00971448 0.0291434 -0.0971448 0 0 255 255 
0.00971448 0.0291434 -0.0874303 0 0 255 255 
0.019429 0.019429 -0.0777159 0 0 255 255 
0.019429 0.0291434 -0.0874303 0 0 255 255 
0.019429 0.0388579 -0.0777159 0 0 255 255 
0.019429 0.019429 -0.116574 0 0 255 255 
0.019429 0.019429 -0.106859 0 0 255 255 
0.019429 0.019429 -0.0971448 0 0 255 255 
0.0388579 0.00971448 -0.106859 0 0 255 255 
0.0388579 0.00971448 -0.116574 0 0 255 255 
0.0291434 0.00971448 -0.106859 0 0 255 255 
0.0291434 0.019429 -0.0971448 0 0 255 255 
0.019429 0.00971448 -0.0874303 0 0 255 255 
0.019429 0 -0.0874303 0 0 255 255 
0.0291434 0 -0.0777159 0 0 255 255 
0.019429 0.00971448 -0.0971448 0 0 255 255 
0.0291434 0.00971448 -0.0971448 0 0 255 255 
0.0388579 0.00971448 -0.0971448 0 0 255 255 
0.0388579 0.00971448 -0.0874303 0 0 255 255 
0.0291434 0.00971448 -0.0777159 0 0 255 255 
0.0291434 0.019429 -0.0874303 0 0 255 255 
0.0291434 0.00971448 -0.0874303 0 0 255 255 
0.0388579 0.019429 -0.0777159 0 0 255 255 
0.019429 0.0291434 -0.106859 0 0 255 255 
0.019429 0.0388579 -0.0971448 0 0 255 255 
0.0291434 0.019429 -0.106859 0 0 255 255 
0.0388579 0.0291434 -0.0971448 0 0 255 255 
0.0291434 0.0291434 -0.106859 0 0 255 255 
0.0388579 0.0291434 -0.106859 0 0 255 255 
0.019429 0.0291434 -0.0777159 0 0 255 255 
0.019429 0.0291434 -0.0971448 0 0 255 255 
0.019429 0.0388579 -0.0874303 0 0 255 255 
0.0291434 0.0291434 -0.0971448 0 0 255 255 
0.0291434 0.0291434 -0.0874303 0 0 255 255 
0.0291434 0.019429 -0.0777159 0 0 255 255 
0.0291434 0.0388579 -0.0874303 0 0 255 255 
0.0388579 0.0388579 -0.0971448 0 0 255 255 
0.0388579 0.0388579 -0.0874303 0 0 255 255 
0.0388579 0.0388579 -0.0777159 0 0 255 255 
0.019429 0.0485724 -0.145717 0 0 255 255 
0.00971448 0.0388579 -0.145717 0 0 255 255 
0.00971448 0.0485724 -0.145717 0 0 255 255 
0.00971448 0.0485724 -0.155432 0 0 255 255 
0.00971448 0.0582869 -0.155432 0 0 255 255 
0.00971448 0.0485724 -0.136003 0 0 255 255 
0.00971448 0.0388579 -0.116574 0 0 255 255 
0 0.0582869 -0.136003 0 0 255 255 
0.00971448 0.0388579 -0.126288 0 0 255 255 
0.019429 0.0388579 -0.136003 0 0 255 255 
0.019429 0.0388579 -0.126288 0 0 255 255 
0.00971448 0.0485724 -0.126288 0 0 255 255 
0.019429 0.0485724 -0.136003 0 0 255 255 
0.019429 0.0485724 -0.126288 0 0 255 255 
0.019429 0.0582869 -0.126288 0 0 255 255 
0.00971448 0.0485724 -0.116574 0 0 255 255 
0 0.0680014 -0.136003 0 0 255 255 
0 0.0777159 -0.155432 0 0 255 255 
0.00971448 0.0680014 -0.145717 0 0 255 255 
0.00971448 0.0777159 -0.155432 0 0 255 255 
0 0.0680014 -0.145717 0 0 255 255 
0.00971448 0.0680014 -0.136003 0 0 255 255 
0.00971448 0.0582869 -0.145717 0 0 255 255 
0.00971448 0.0582869 -0.136003 0 0 255 255 
0.00971448 0.0680014 -0.155432 0 0 255 255 
0.019429 0.0680014 -0.155432 0 0 255 255 
0.019429 0.0777159 -0.155432 0 0 255 255 
0.00971448 0.0582869 -0.126288 0 0 255 255 
0 0.0680014 -0.126288 0 0 255 255 
0 0.0777159 -0.136003 0 0 255 255 
0.00971448 0.0680014 -0.126288 0 0 255 255 
0.019429 0.0680014 -0.126288 0 0 255 255 
0.019429 0.0388579 -0.155432 0 0 255 255 
0.019429 0.0388579 -0.145717 0 0 255 255 
0.019429 0.0485724 -0.155432 0 0 255 255 
0.019429 0.0582869 -0.155432 0 0 255 255 
0.019429 0.0582869 -0.145717 0 0 255 255 
0.0291434 0.0485724 -0.145717 0 0 255 255 
0.0291434 0.0582869 -0.145717 0 0 255 255 
0.0291434 0.0485724 -0.155432 0 0 255 255 
0.0388579 0.0485724 -0.155432 0 0 255 255 
0.0388579 0.0485724 -0.145717 0 0 255 255 
0.0388579 0.0582869 -0.145717 0 0 255 255 
0.019429 0.0388579 -0.116574 0 0 255 255 
0.0291434 0.0388579 -0.126288 0 0 255 255 
0.0291434 0.0485724 -0.136003 0 0 255 255 
0.019429 0.0582869 -0.116574 0 0 255 255 
0.0291434 0.0485724 -0.116574 0 0 255 255 
0.0291434 0.0582869 -0.136003 0 0 255 255 
0.0388579 0.0485724 -0.136003 0 0 255 255 
0.0291434 0.0485724 -0.126288 0 0 255 255 
0.0291434 0.0680014 -0.155432 0 0 255 255 
0.019429 0.0582869 -0.136003 0 0 255 255 
0.0291434 0.0680014 -0.145717 0 0 255 255 
0.019429 0.0680014 -0.145717 0 0 255 255 
0.0291434 0.0777159 -0.145717 0 0 255 255 
0.019429 0.0680014 -0.136003 0 0 255 255 
0.019429 0.0777159 -0.145717 0 0 255 255 
0.019429 0.0777159 -0.136003 0 0 255 255 
0.0291434 0.0582869 -0.155432 0 0 255 255 
0.0388579 0.0582869 -0.155432 0 0 255 255 
0.0291434 0.0777159 -0.155432 0 0 255 255 
0.0388579 0.0680014 -0.155432 0 0 255 255 
0.0291434 0.0680014 -0.136003 0 0 255 255 
0.0388579 0.0680014 -0.145717 0 0 255 255 
0.0291434 0.0680014 -0.126288 0 0 255 255 
0.0291434 0.0777159 -0.126288 0 0 255 255 
0.0291434 0.0582869 -0.126288 0 0 255 255 
0.0388579 0.0680014 -0.136003 0 0 255 255 
0.0291434 0.0680014 -0.116574 0 0 255 255 
0.0388579 0.0582869 -0.116574 0 0 255 255 
0.0388579 0.0680014 -0.116574 0 0 255 255 
0 0.0388579 -0.106859 0 0 255 255 
0 0.0485724 -0.106859 0 0 255 255 
0.00971448 0.0388579 -0.106859 0 0 255 255 
0.00971448 0.0388579 -0.0971448 0 0 255 255 
0 0.0485724 -0.116574 0 0 255 255 
0 0.0485724 -0.0971448 0 0 255 255 
0.00971448 0.0582869 -0.106859 0 0 255 255 
0.00971448 0.0485724 -0.106859 0 0 255 255 
0.019429 0.0485724 -0.116574 0 0 255 255 
0.00971448 0.0485724 -0.0971448 0 0 255 255 
0.019429 0.0485724 -0.106859 0 0 255 255 
0.019429 0.0485724 -0.0971448 0 0 255 255 
0 0.0485724 -0.0874303 0 0 255 255 
0.00971448 0.0388579 -0.0874303 0 0 255 255 
0.00971448 0.0485724 -0.0777159 0 0 255 255 
0.00971448 0.0485724 -0.0874303 0 0 255 255 
0.00971448 0.0582869 -0.0874303 0 0 255 255 
0.00971448 0.0582869 -0.0777159 0 0 255 255 
0.00971448 0.0388579 -0.0777159 0 0 255 255 
0.019429 0.0485724 -0.0874303 0 0 255 255 
0.00971448 0.0582869 -0.116574 0 0 255 255 
0 0.0680014 -0.116574 0 0 255 255 
0 0.0777159 -0.106859 0 0 255 255 
0.00971448 0.0777159 -0.106859 0 0 255 255 
0.019429 0.0582869 -0.106859 0 0 255 255 
0.019429 0.0582869 -0.0971448 0 0 255 255 
0.00971448 0.0680014 -0.116574 0 0 255 255 
0.019429 0.0680014 -0.116574 0 0 255 255 
0.019429 0.0777159 -0.106859 0 0 255 255 
0.00971448 0.0680014 -0.106859 0 0 255 255 
0.00971448 0.0680014 -0.0971448 0 0 255 255 
0.00971448 0.0582869 -0.0971448 0 0 255 255 
0.00971448 0.0680014 -0.0777159 0 0 255 255 
0 0.0680014 -0.0874303 0 0 255 255 
0.00971448 0.0680014 -0.0874303 0 0 255 255 
0.019429 0.0680014 -0.0971448 0 0 255 255 
0.019429 0.0388579 -0.106859 0 0 255 255 
0.0291434 0.0388579 -0.116574 0 0 255 255 
0.0291434 0.0388579 -0.106859 0 0 255 255 
0.0291434 0.0388579 -0.0971448 0 0 255 255 
0.0291434 0.0485724 -0.106859 0 0 255 255 
0.0291434 0.0582869 -0.106859 0 0 255 255 
0.0291434 0.0582869 -0.0971448 0 0 255 255 
0.0291434 0.0485724 -0.0874303 0 0 255 255 
0.0291434 0.0388579 -0.0777159 0 0 255 255 
0.0291434 0.0485724 -0.0971448 0 0 255 255 
0.019429 0.0582869 -0.0874303 0 0 255 255 
0.019429 0.0582869 -0.0777159 0 0 255 255 
0.0388579 0.0485724 -0.0874303 0 0 255 255 
0.0291434 0.0485724 -0.0777159 0 0 255 255 
0.0291434 0.0582869 -0.0874303 0 0 255 255 
0.0291434 0.0582869 -0.116574 0 0 255 255 
0.019429 0.0680014 -0.106859 0 0 255 255 
0.0291434 0.0777159 -0.106859 0 0 255 255 
0.0388579 0.0582869 -0.106859 0 0 255 255 
0.0291434 0.0680014 -0.106859 0 0 255 255 
0.019429 0.0680014 -0.0777159 0 0 255 255 
0.0291434 0.0777159 -0.0874303 0 0 255 255 
0.019429 0.0680014 -0.0874303 0 0 255 255 
0.019429 0.0777159 -0.0777159 0 0 255 255 
0.0291434 0.0680014 -0.0874303 0 0 255 255 
0.0291434 0.0680014 -0.0971448 0 0 255 255 
0.0388579 0.0582869 -0.0971448 0 0 255 255 
0.0388579 0.0582869 -0.0874303 0 0 255 255 
0.0388579 0.0680014 -0.0971448 0 0 255 255 
0.0388579 0.0680014 -0.0874303 0 0 255 255 
0.0291434 0.0777159 -0.0971448 0 0 255 255 
0.0388579 0.0777159 -0.0971448 0 0 255 255 
0.0388579 0 -0.145717 0 0 255 255 
0.0485724 0.00971448 -0.145717 0 0 255 255 
0.0485724 0.00971448 -0.155432 0 0 255 255 
0.0485724 0 -0.155432 0 0 255 255 
0.0485724 0 -0.136003 0 0 255 255 
0.0582869 0.019429 -0.155432 0 0 255 255 
0.0582869 0.00971448 -0.145717 0 0 255 255 
0.0582869 0.019429 -0.136003 0 0 255 255 
0.0485724 0.00971448 -0.126288 0 0 255 255 
0.0485724 0.00971448 -0.116574 0 0 255 255 
0.0388579 0.019429 -0.126288 0 0 255 255 
0.0582869 0 -0.136003 0 0 255 255 
0.0485724 0 -0.126288 0 0 255 255 
0.0485724 0.00971448 -0.136003 0 0 255 255 
0.0485724 0.019429 -0.155432 0 0 255 255 
0.0388579 0.019429 -0.136003 0 0 255 255 
0.0485724 0.0291434 -0.145717 0 0 255 255 
0.0485724 0.0291434 -0.136003 0 0 255 255 
0.0388579 0.0388579 -0.145717 0 0 255 255 
0.0485724 0.0291434 -0.155432 0 0 255 255 
0.0388579 0.0291434 -0.145717 0 0 255 255 
0.0485724 0.019429 -0.145717 0 0 255 255 
0.0582869 0.0291434 -0.155432 0 0 255 255 
0.0485724 0.019429 -0.136003 0 0 255 255 
0.0582869 0.0388579 -0.155432 0 0 255 255 
0.0582869 0.0388579 -0.145717 0 0 255 255 
0.0388579 0.0291434 -0.126288 0 0 255 255 
0.0485724 0.019429 -0.126288 0 0 255 255 
0.0485724 0.0291434 -0.126288 0 0 255 255 
0.0388579 0.0291434 -0.116574 0 0 255 255 
0.0582869 0.019429 -0.126288 0 0 255 255 
0.0485724 0.0388579 -0.126288 0 0 255 255 
0.0582869 0.0291434 -0.126288 0 0 255 255 
0.0582869 0.0291434 -0.116574 0 0 255 255 
0.0582869 0 -0.155432 0 0 255 255 
0.0582869 0 -0.145717 0 0 255 255 
0.0680014 0 -0.155432 0 0 255 255 
0.0680014 0 -0.145717 0 0 255 255 
0.0680014 0.00971448 -0.155432 0 0 255 255 
0.0582869 0.00971448 -0.155432 0 0 255 255 
0.0680014 0.00971448 -0.145717 0 0 255 255 
0.0680014 0.019429 -0.155432 0 0 255 255 
0.0582869 0.00971448 -0.136003 0 0 255 255 
0.0680014 0.019429 -0.136003 0 0 255 255 
0.0777159 0.00971448 -0.155432 0 0 255 255 
0.0777159 0.019429 -0.145717 0 0 255 255 
0.0680014 0.00971448 -0.126288 0 0 255 255 
0.0582869 0.00971448 -0.126288 0 0 255 255 
0.0680014 0.00971448 -0.136003 0 0 255 255 
0.0777159 0.00971448 -0.136003 0 0 255 255 
0.0680014 0 -0.116574 0 0 255 255 
0.0680014 0.019429 -0.126288 0 0 255 255 
0.0680014 0.019429 -0.116574 0 0 255 255 
0.0582869 0.019429 -0.145717 0 0 255 255 
0.0582869 0.0291434 -0.145717 0 0 255 255 
0.0680014 0.0388579 -0.155432 0 0 255 255 
0.0582869 0.0291434 -0.136003 0 0 255 255 
0.0680014 0.0291434 -0.155432 0 0 255 255 
0.0777159 0.0291434 -0.155432 0 0 255 255 
0.0680014 0.019429 -0.145717 0 0 255 255 
0.0777159 0.0291434 -0.136003 0 0 255 255 
0.0680014 0.0291434 -0.145717 0 0 255 255 
0.0680014 0.0388579 -0.136003 0 0 255 255 
0.0582869 0.019429 -0.116574 0 0 255 255 
0.0582869 0.0388579 -0.136003 0 0 255 255 
0.0582869 0.0388579 -0.126288 0 0 255 255 
0.0582869 0.0388579 -0.116574 0 0 255 255 
0.0680014 0.0291434 -0.136003 0 0 255 255 
0.0680014 0.0291434 -0.126288 0 0 255 255 
0.0680014 0.0388579 -0.126288 0 0 255 255 
0.0777159 0.0388579 -0.126288 0 0 255 255 
0.0388579 0.019429 -0.116574 0 0 255 255 
0.0388579 0.019429 -0.106859 0 0 255 255 
0.0485724 0.019429 -0.116574 0 0 255 255 
0.0485724 0.019429 -0.106859 0 0 255 255 
0.0388579 0.019429 -0.0971448 0 0 255 255 
0.0485724 0 -0.116574 0 0 255 255 
0.0485724 0.00971448 -0.106859 0 0 255 255 
0.0582869 0 -0.106859 0 0 255 255 
0.0485724 0 -0.106859 0 0 255 255 
0.0485724 0 -0.0971448 0 0 255 255 
0.0485724 0.019429 -0.0971448 0 0 255 255 
0.0582869 0.00971448 -0.0971448 0 0 255 255 
0.0388579 0 -0.0971448 0 0 255 255 
0.0485724 0.00971448 -0.0971448 0 0 255 255 
0.0485724 0.019429 -0.0874303 0 0 255 255 
0.0388579 0.019429 -0.0874303 0 0 255 255 
0.0485724 0 -0.0874303 0 0 255 255 
0.0485724 0.00971448 -0.0874303 0 0 255 255 
0.0582869 0.00971448 -0.0874303 0 0 255 255 
0.0582869 0.019429 -0.0971448 0 0 255 255 
0.0582869 0.00971448 -0.0777159 0 0 255 255 
0.0485724 0.0291434 -0.106859 0 0 255 255 
0.0485724 0.0388579 -0.106859 0 0 255 255 
0.0485724 0.0291434 -0.116574 0 0 255 255 
0.0485724 0.0291434 -0.0971448 0 0 255 255 
0.0485724 0.0388579 -0.0971448 0 0 255 255 
0.0388579 0.0291434 -0.0874303 0 0 255 255 
0.0388579 0.0291434 -0.0777159 0 0 255 255 
0.0485724 0.019429 -0.0777159 0 0 255 255 
0.0485724 0.0291434 -0.0874303 0 0 255 255 
0.0485724 0.0291434 -0.0777159 0 0 255 255 
0.0582869 0 -0.116574 0 0 255 255 
0.0582869 0.00971448 -0.116574 0 0 255 255 
0.0582869 0.00971448 -0.106859 0 0 255 255 
0.0680014 0.00971448 -0.106859 0 0 255 255 
0.0680014 0.00971448 -0.0971448 0 0 255 255 
0.0582869 0.019429 -0.106859 0 0 255 255 
0.0680014 0.019429 -0.0971448 0 0 255 255 
0.0680014 0.00971448 -0.116574 0 0 255 255 
0.0680014 0 -0.0971448 0 0 255 255 
0.0582869 0.019429 -0.0777159 0 0 255 255 
0.0680014 0.019429 -0.0777159 0 0 255 255 
0.0680014 0 -0.0874303 0 0 255 255 
0.0680014 0.00971448 -0.0874303 0 0 255 255 
0.0777159 0.00971448 -0.0971448 0 0 255 255 
0.0680014 0 -0.0777159 0 0 255 255 
0.0777159 0.00971448 -0.0777159 0 0 255 255 
0.0680014 0.019429 -0.106859 0 0 255 255 
0.0680014 0.0291434 -0.106859 0 0 255 255 
0.0680014 0.0388579 -0.116574 0 0 255 255 
0.0680014 0.0388579 -0.106859 0 0 255 255 
0.0582869 0.0291434 -0.106859 0 0 255 255 
0.0680014 0.0291434 -0.0971448 0 0 255 255 
0.0680014 0.0291434 -0.116574 0 0 255 255 
0.0777159 0.0291434 -0.116574 0 0 255 255 
0.0680014 0.0388579 -0.0971448 0 0 255 255 
0.0777159 0.0388579 -0.0971448 0 0 255 255 
0.0582869 0.0291434 -0.0971448 0 0 255 255 
0.0582869 0.019429 -0.0874303 0 0 255 255 
0.0582869 0.0388579 -0.0971448 0 0 255 255 
0.0582869 0.0291434 -0.0874303 0 0 255 255 
0.0680014 0.019429 -0.0874303 0 0 255 255 
0.0777159 0.0291434 -0.0874303 0 0 255 255 
0.0777159 0.0291434 -0.0777159 0 0 255 255 
0.0680014 0.0291434 -0.0874303 0 0 255 255 
0.0680014 0.0388579 -0.0874303 0 0 255 255 
0.0485724 0.0582869 -0.155432 0 0 255 255 
0.0388579 0.0582869 -0.136003 0 0 255 255 
0.0485724 0.0485724 -0.145717 0 0 255 255 
0.0485724 0.0388579 -0.155432 0 0 255 255 
0.0485724 0.0388579 -0.145717 0 0 255 255 
0.0582869 0.0485724 -0.145717 0 0 255 255 
0.0485724 0.0485724 -0.155432 0 0 255 255 
0.0582869 0.0485724 -0.155432 0 0 255 255 
0.0582869 0.0582869 -0.145717 0 0 255 255 
0.0388579 0.0388579 -0.126288 0 0 255 255 
0.0388579 0.0485724 -0.126288 0 0 255 255 
0.0388579 0.0485724 -0.116574 0 0 255 255 
0.0485724 0.0582869 -0.116574 0 0 255 255 
0.0485724 0.0388579 -0.136003 0 0 255 255 
0.0582869 0.0485724 -0.136003 0 0 255 255 
0.0582869 0.0485724 -0.126288 0 0 255 255 
0.0485724 0.0485724 -0.136003 0 0 255 255 
0.0485724 0.0485724 -0.126288 0 0 255 255 
0.0485724 0.0582869 -0.145717 0 0 255 255 
0.0485724 0.0582869 -0.136003 0 0 255 255 
0.0485724 0.0777159 -0.155432 0 0 255 255 
0.0485724 0.0680014 -0.136003 0 0 255 255 
0.0485724 0.0777159 -0.136003 0 0 255 255 
0.0582869 0.0680014 -0.145717 0 0 255 255 
0.0485724 0.0680014 -0.155432 0 0 255 255 
0.0485724 0.0777159 -0.145717 0 0 255 255 
0.0582869 0.0680014 -0.155432 0 0 255 255 
0.0485724 0.0680014 -0.145717 0 0 255 255 
0.0582869 0.0777159 -0.145717 0 0 255 255 
0.0388579 0.0582869 -0.126288 0 0 255 255 
0.0388579 0.0680014 -0.126288 0 0 255 255 
0.0485724 0.0680014 -0.126288 0 0 255 255 
0.0388579 0.0777159 -0.126288 0 0 255 255 
0.0388579 0.0777159 -0.116574 0 0 255 255 
0.0485724 0.0777159 -0.126288 0 0 255 255 
0.0582869 0.0680014 -0.126288 0 0 255 255 
0.0485724 0.0582869 -0.126288 0 0 255 255 
0.0582869 0.0582869 -0.126288 0 0 255 255 
0.0485724 0.0680014 -0.116574 0 0 255 255 
0.0680014 0.0485724 -0.145717 0 0 255 255 
0.0582869 0.0582869 -0.155432 0 0 255 255 
0.0680014 0.0485724 -0.155432 0 0 255 255 
0.0582869 0.0582869 -0.136003 0 0 255 255 
0.0680014 0.0388579 -0.145717 0 0 255 255 
0.0777159 0.0485724 -0.145717 0 0 255 255 
0.0777159 0.0388579 -0.136003 0 0 255 255 
0.0777159 0.0582869 -0.136003 0 0 255 255 
0.0582869 0.0485724 -0.116574 0 0 255 255 
0.0582869 0.0582869 -0.116574 0 0 255 255 
0.0680014 0.0582869 -0.116574 0 0 255 255 
0.0777159 0.0485724 -0.126288 0 0 255 255 
0.0680014 0.0485724 -0.136003 0 0 255 255 
0.0680014 0.0485724 -0.126288 0 0 255 255 
0.0680014 0.0582869 -0.136003 0 0 255 255 
0.0777159 0.0582869 -0.126288 0 0 255 255 
0.0680014 0.0582869 -0.145717 0 0 255 255 
0.0582869 0.0777159 -0.136003 0 0 255 255 
0.0680014 0.0582869 -0.155432 0 0 255 255 
0.0680014 0.0680014 -0.155432 0 0 255 255 
0.0680014 0.0680014 -0.145717 0 0 255 255 
0.0777159 0.0777159 -0.155432 0 0 255 255 
0.0777159 0.0777159 -0.136003 0 0 255 255 
0.0680014 0.0582869 -0.126288 0 0 255 255 
0.0582869 0.0680014 -0.136003 0 0 255 255 
0.0680014 0.0680014 -0.136003 0 0 255 255 
0.0680014 0.0777159 -0.126288 0 0 255 255 
0.0582869 0.0680014 -0.116574 0 0 255 255 
0.0680014 0.0680014 -0.126288 0 0 255 255 
0.0777159 0.0680014 -0.136003 0 0 255 255 
0.0777159 0.0680014 -0.126288 0 0 255 255 
0.0680014 0.0777159 -0.136003 0 0 255 255 
0.0485724 0.0485724 -0.106859 0 0 255 255 
0.0388579 0.0388579 -0.106859 0 0 255 255 
0.0388579 0.0485724 -0.106859 0 0 255 255 
0.0388579 0.0485724 -0.0971448 0 0 255 255 
0.0485724 0.0388579 -0.116574 0 0 255 255 
0.0485724 0.0485724 -0.116574 0 0 255 255 
0.0485724 0.0485724 -0.0971448 0 0 255 255 
0.0485724 0.0388579 -0.0874303 0 0 255 255 
0.0388579 0.0485724 -0.0777159 0 0 255 255 
0.0582869 0.0388579 -0.0874303 0 0 255 255 
0.0485724 0.0485724 -0.0874303 0 0 255 255 
0.0582869 0.0485724 -0.0874303 0 0 255 255 
0.0485724 0.0582869 -0.0971448 0 0 255 255 
0.0485724 0.0582869 -0.0874303 0 0 255 255 
0.0388579 0.0680014 -0.106859 0 0 255 255 
0.0485724 0.0680014 -0.106859 0 0 255 255 
0.0485724 0.0777159 -0.106859 0 0 255 255 
0.0485724 0.0777159 -0.0971448 0 0 255 255 
0.0485724 0.0582869 -0.106859 0 0 255 255 
0.0485724 0.0777159 -0.0874303 0 0 255 255 
0.0485724 0.0680014 -0.0971448 0 0 255 255 
0.0582869 0.0680014 -0.0971448 0 0 255 255 
0.0582869 0.0680014 -0.0874303 0 0 255 255 
0.0582869 0.0777159 -0.0971448 0 0 255 255 
0.0485724 0.0680014 -0.0874303 0 0 255 255 
0.0680014 0.0485724 -0.116574 0 0 255 255 
0.0680014 0.0485724 -0.106859 0 0 255 255 
0.0582869 0.0388579 -0.106859 0 0 255 255 
0.0582869 0.0582869 -0.106859 0 0 255 255 
0.0582869 0.0485724 -0.106859 0 0 255 255 
0.0582869 0.0582869 -0.0971448 0 0 255 255 
0.0680014 0.0582869 -0.106859 0 0 255 255 
0.0777159 0.0485724 -0.106859 0 0 255 255 
0.0777159 0.0582869 -0.116574 0 0 255 255 
0.0777159 0.0582869 -0.0971448 0 0 255 255 
0.0582869 0.0485724 -0.0971448 0 0 255 255 
0.0582869 0.0582869 -0.0874303 0 0 255 255 
0.0680014 0.0485724 -0.0777159 0 0 255 255 
0.0777159 0.0388579 -0.0874303 0 0 255 255 
0.0680014 0.0485724 -0.0971448 0 0 255 255 
0.0680014 0.0485724 -0.0874303 0 0 255 255 
0.0777159 0.0485724 -0.0777159 0 0 255 255 
0.0680014 0.0680014 -0.106859 0 0 255 255 
0.0582869 0.0680014 -0.106859 0 0 255 255 
0.0680014 0.0582869 -0.0971448 0 0 255 255 
0.0680014 0.0777159 -0.106859 0 0 255 255 
0.0680014 0.0680014 -0.116574 0 0 255 255 
0.0777159 0.0777159 -0.106859 0 0 255 255 
0.0680014 0.0582869 -0.0874303 0 0 255 255 
0.0582869 0.0777159 -0.0874303 0 0 255 255 
0.0680014 0.0680014 -0.0971448 0 0 255 255 
0.0680014 0.0680014 -0.0874303 0 0 255 255 
0.0582869 0.0777159 -0.0777159 0 0 255 255 
0.0777159 0.0680014 -0.0971448 0 0 255 255 
0.0777159 0.0680014 -0.0777159 0 0 255 255 
0.00971448 0 -0.0777159 0 0 255 255 
0.00971448 0 -0.0582869 0 0 255 255 
0.00971448 0.019429 -0.0777159 0 0 255 255 
0.00971448 0.019429 -0.0680014 0 0 255 255 
0.00971448 0.00971448 -0.0680014 0 0 255 255 
0.00971448 0.00971448 -0.0582869 0 0 255 255 
0 0.00971448 -0.0388579 0 0 255 255 
0.00971448 0 -0.0485724 0 0 255 255 
0.00971448 0 -0.0388579 0 0 255 255 
0.00971448 0.00971448 -0.0485724 0 0 255 255 
0 0.00971448 -0.0485724 0 0 255 255 
0 0.019429 -0.0485724 0 0 255 255 
0.00971448 0.00971448 -0.0388579 0 0 255 255 
0 0.019429 -0.0777159 0 0 255 255 
0 0.019429 -0.0680014 0 0 255 255 
0.00971448 0.019429 -0.0582869 0 0 255 255 
0.00971448 0.0291434 -0.0777159 0 0 255 255 
0.00971448 0.0291434 -0.0680014 0 0 255 255 
0.00971448 0.0291434 -0.0582869 0 0 255 255 
0.00971448 0.0388579 -0.0582869 0 0 255 255 
0.019429 0.0291434 -0.0680014 0 0 255 255 
0.019429 0.0388579 -0.0582869 0 0 255 255 
0 0.0291434 -0.0485724 0 0 255 255 
0 0.0291434 -0.0388579 0 0 255 255 
0.00971448 0.0291434 -0.0485724 0 0 255 255 
0.00971448 0.019429 -0.0485724 0 0 255 255 
0.019429 0.019429 -0.0485724 0 0 255 255 
0.019429 0.0291434 -0.0485724 0 0 255 255 
0.019429 0 -0.0680014 0 0 255 255 
0.019429 0 -0.0582869 0 0 255 255 
0.019429 0.00971448 -0.0680014 0 0 255 255 
0.0291434 0.00971448 -0.0680014 0 0 255 255 
0.019429 0.019429 -0.0680014 0 0 255 255 
0.0291434 0.019429 -0.0680014 0 0 255 255 
0.019429 0.00971448 -0.0582869 0 0 255 255 
0.0388579 0.00971448 -0.0777159 0 0 255 255 
0.0388579 0.00971448 -0.0680014 0 0 255 255 
0.019429 0 -0.0485724 0 0 255 255 
0.0291434 0 -0.0485724 0 0 255 255 
0.019429 0.00971448 -0.0485724 0 0 255 255 
0.0291434 0 -0.0388579 0 0 255 255 
0.019429 0.019429 -0.0582869 0 0 255 255 
0.0291434 0.00971448 -0.0582869 0 0 255 255 
0.0291434 0.019429 -0.0582869 0 0 255 255 
0.0291434 0.00971448 -0.0485724 0 0 255 255 
0.0388579 0.00971448 -0.0485724 0 0 255 255 
0.019429 0.0291434 -0.0582869 0 0 255 255 
0.0291434 0.0291434 -0.0680014 0 0 255 255 
0.0291434 0.0291434 -0.0582869 0 0 255 255 
0.0291434 0.0291434 -0.0777159 0 0 255 255 
0.0388579 0.019429 -0.0582869 0 0 255 255 
0.0291434 0.0388579 -0.0680014 0 0 255 255 
0.019429 0.0388579 -0.0485724 0 0 255 255 
0.0291434 0.0388579 -0.0485724 0 0 255 255 
0.0388579 0.019429 -0.0485724 0 0 255 255 
0.0291434 0.019429 -0.0485724 0 0 255 255 
0.0291434 0.019429 -0.0388579 0 0 255 255 
0.0291434 0.0291434 -0.0388579 0 0 255 255 
0.0388579 0.0388579 -0.0582869 0 0 255 255 
0.0291434 0.0291434 -0.0485724 0 0 255 255 
0.0388579 0.0291434 -0.0485724 0 0 255 255 
0.0388579 0.0388579 -0.0485724 0 0 255 255 
0.0388579 0.0388579 -0.0388579 0 0 255 255 
0 0.00971448 -0.0291434 0 0 255 255 
0.00971448 0 -0.0291434 0 0 255 255 
0 0.00971448 -0.019429 0 0 255 255 
0.00971448 0.00971448 -0.0291434 0 0 255 255 
0.00971448 0.019429 -0.0291434 0 0 255 255 
0.00971448 0.00971448 -0.019429 0 0 255 255 
0.00971448 0.019429 -0.019429 0 0 255 255 
0.019429 0.019429 -0.019429 0 0 255 255 
0 0 0 0 0 255 255 
0 0.00971448 0 0 0 255 255 
0 0.00971448 -0.00971448 0 0 255 255 
0.00971448 0.00971448 -0.00971448 0 0 255 255 
0.019429 0.00971448 -0.00971448 0 0 255 255 
0.00971448 0.00971448 0 0 0 255 255 
0.019429 0.019429 -0.00971448 0 0 255 255 
0.019429 0.019429 0 0 0 255 255 
0 0.019429 -0.0291434 0 0 255 255 
0.00971448 0.019429 -0.0388579 0 0 255 255 
0 0.0388579 -0.0388579 0 0 255 255 
0.00971448 0.0291434 -0.0291434 0 0 255 255 
0 0.0291434 -0.019429 0 0 255 255 
0.00971448 0.0388579 -0.0291434 0 0 255 255 
0.00971448 0.0388579 -0.019429 0 0 255 255 
0.00971448 0.0291434 -0.0388579 0 0 255 255 
0.019429 0.019429 -0.0291434 0 0 255 255 
0.019429 0.0291434 -0.019429 0 0 255 255 
0.00971448 0.019429 -0.00971448 0 0 255 255 
0.00971448 0.019429 0 0 0 255 255 
0.00971448 0.0291434 0 0 0 255 255 
0.00971448 0.0291434 -0.00971448 0 0 255 255 
0.00971448 0.0291434 -0.019429 0 0 255 255 
0.019429 0.0291434 -0.00971448 0 0 255 255 
0.00971448 0.0388579 0 0 0 255 255 
0.019429 0.00971448 -0.0388579 0 0 255 255 
0.019429 0.019429 -0.0388579 0 0 255 255 
0.0291434 0.00971448 -0.0291434 0 0 255 255 
0.019429 0.00971448 -0.0291434 0 0 255 255 
0.0291434 0.00971448 -0.019429 0 0 255 255 
0.0291434 0.00971448 -0.0388579 0 0 255 255 
0.0388579 0.00971448 -0.0291434 0 0 255 255 
0.0291434 0 -0.0291434 0 0 255 255 
0.0291434 0 -0.019429 0 0 255 255 
0.0388579 0 -0.019429 0 0 255 255 
0.0388579 0.00971448 -0.0388579 0 0 255 255 
0.0388579 0.019429 -0.019429 0 0 255 255 
0.019429 0.00971448 -0.019429 0 0 255 255 
0.0291434 0.00971448 0 0 0 255 255 
0.0291434 0.019429 -0.00971448 0 0 255 255 
0.0291434 0.00971448 -0.00971448 0 0 255 255 
0.0291434 0.019429 0 0 0 255 255 
0.0388579 0.00971448 -0.00971448 0 0 255 255 
0.019429 0.0291434 -0.0388579 0 0 255 255 
0.019429 0.0291434 -0.0291434 0 0 255 255 
0.0291434 0.0291434 -0.019429 0 0 255 255 
0.019429 0.0388579 -0.0291434 0 0 255 255 
0.0291434 0.019429 -0.0291434 0 0 255 255 
0.0291434 0.0291434 -0.0291434 0 0 255 255 
0.0388579 0.0291434 -0.0388579 0 0 255 255 
0.0388579 0.0291434 -0.0291434 0 0 255 255 
0.0291434 0.019429 -0.019429 0 0 255 255 
0.019429 0.0388579 -0.00971448 0 0 255 255 
0.0291434 0.0291434 -0.00971448 0 0 255 255 
0.0388579 0.019429 -0.00971448 0 0 255 255 
0.00971448 0.0388579 -0.0680014 0 0 255 255 
0.00971448 0.0485724 -0.0680014 0 0 255 255 
0.019429 0.0485724 -0.0680014 0 0 255 255 
0.019429 0.0582869 -0.0582869 0 0 255 255 
0.00971448 0.0388579 -0.0485724 0 0 255 255 
0.00971448 0.0485724 -0.0388579 0 0 255 255 
0 0.0485724 -0.0582869 0 0 255 255 
0 0.0582869 -0.0485724 0 0 255 255 
0.00971448 0.0485724 -0.0485724 0 0 255 255 
0.00971448 0.0485724 -0.0582869 0 0 255 255 
0.019429 0.0485724 -0.0388579 0 0 255 255 
0.00971448 0.0582869 -0.0582869 0 0 255 255 
0.00971448 0.0582869 -0.0485724 0 0 255 255 
0 0.0582869 -0.0777159 0 0 255 255 
0 0.0680014 -0.0777159 0 0 255 255 
0.00971448 0.0582869 -0.0680014 0 0 255 255 
0 0.0582869 -0.0582869 0 0 255 255 
0.00971448 0.0680014 -0.0582869 0 0 255 255 
0.00971448 0.0680014 -0.0680014 0 0 255 255 
0.019429 0.0680014 -0.0582869 0 0 255 255 
0.019429 0.0680014 -0.0680014 0 0 255 255 
0.00971448 0.0777159 -0.0680014 0 0 255 255 
0 0.0680014 -0.0485724 0 0 255 255 
0 0.0680014 -0.0388579 0 0 255 255 
0.00971448 0.0777159 -0.0388579 0 0 255 255 
0.00971448 0.0680014 -0.0485724 0 0 255 255 
0.019429 0.0582869 -0.0485724 0 0 255 255 
0.019429 0.0680014 -0.0388579 0 0 255 255 
0.00971448 0.0777159 -0.0485724 0 0 255 255 
0.019429 0.0777159 -0.0485724 0 0 255 255 
0.019429 0.0777159 -0.0388579 0 0 255 255 
0.019429 0.0388579 -0.0680014 0 0 255 255 
0.019429 0.0485724 -0.0777159 0 0 255 255 
0.019429 0.0485724 -0.0582869 0 0 255 255 
0.0291434 0.0485724 -0.0680014 0 0 255 255 
0.0291434 0.0388579 -0.0582869 0 0 255 255 
0.0291434 0.0485724 -0.0582869 0 0 255 255 
0.0388579 0.0485724 -0.0582869 0 0 255 255 
0.0388579 0.0485724 -0.0680014 0 0 255 255 
0.0388579 0.0582869 -0.0680014 0 0 255 255 
0.019429 0.0485724 -0.0485724 0 0 255 255 
0.0291434 0.0485724 -0.0388579 0 0 255 255 
0.0291434 0.0485724 -0.0485724 0 0 255 255 
0.0388579 0.0485724 -0.0388579 0 0 255 255 
0.0291434 0.0582869 -0.0485724 0 0 255 255 
0.0388579 0.0485724 -0.0485724 0 0 255 255 
0.0388579 0.0582869 -0.0485724 0 0 255 255 
0.019429 0.0582869 -0.0680014 0 0 255 255 
0.0291434 0.0582869 -0.0680014 0 0 255 255 
0.0291434 0.0680014 -0.0777159 0 0 255 255 
0.0291434 0.0582869 -0.0582869 0 0 255 255 
0.0291434 0.0680014 -0.0582869 0 0 255 255 
0.0291434 0.0582869 -0.0777159 0 0 255 255 
0.0388579 0.0582869 -0.0777159 0 0 255 255 
0.0388579 0.0680014 -0.0777159 0 0 255 255 
0.0291434 0.0680014 -0.0680014 0 0 255 255 
0.019429 0.0680014 -0.0485724 0 0 255 255 
0.0291434 0.0680014 -0.0485724 0 0 255 255 
0.0388579 0.0582869 -0.0582869 0 0 255 255 
0.0291434 0.0777159 -0.0582869 0 0 255 255 
0.0388579 0.0777159 -0.0485724 0 0 255 255 
0.0388579 0.0680014 -0.0388579 0 0 255 255 
0.0388579 0.0777159 -0.0388579 0 0 255 255 
0.00971448 0.0388579 -0.0388579 0 0 255 255 
0.00971448 0.0485724 -0.0291434 0 0 255 255 
0 0.0485724 -0.0291434 0 0 255 255 
0 0.0485724 -0.019429 0 0 255 255 
0.00971448 0.0582869 -0.019429 0 0 255 255 
0.019429 0.0485724 -0.019429 0 0 255 255 
0.019429 0.0582869 -0.019429 0 0 255 255 
0 0.0388579 -0.00971448 0 0 255 255 
0 0.0485724 -0.00971448 0 0 255 255 
0.00971448 0.0485724 -0.00971448 0 0 255 255 
0.00971448 0.0388579 -0.00971448 0 0 255 255 
0.00971448 0.0485724 -0.019429 0 0 255 255 
0.00971448 0.0582869 -0.00971448 0 0 255 255 
0.00971448 0.0485724 0 0 0 255 255 
0.019429 0.0485724 -0.00971448 0 0 255 255 
0 0.0680014 -0.0291434 0 0 255 255 
0 0.0777159 -0.0388579 0 0 255 255 
0.00971448 0.0777159 -0.0291434 0 0 255 255 
0.00971448 0.0582869 -0.0388579 0 0 255 255 
0.00971448 0.0582869 -0.0291434 0 0 255 255 
0.00971448 0.0680014 -0.0388579 0 0 255 255 
0.00971448 0.0680014 -0.0291434 0 0 255 255 
0.019429 0.0582869 -0.0291434 0 0 255 255 
0.019429 0.0680014 -0.019429 0 0 255 255 
0.00971448 0.0777159 -0.019429 0 0 255 255 
0 0.0582869 -0.00971448 0 0 255 255 
0 0.0777159 -0.00971448 0 0 255 255 
0 0.0680014 0 0 0 255 255 
0.00971448 0.0680014 -0.019429 0 0 255 255 
0.00971448 0.0680014 -0.00971448 0 0 255 255 
0.019429 0.0388579 -0.0388579 0 0 255 255 
0.0291434 0.0388579 -0.0291434 0 0 255 255 
0.019429 0.0388579 -0.019429 0 0 255 255 
0.019429 0.0485724 -0.0291434 0 0 255 255 
0.0291434 0.0388579 -0.0388579 0 0 255 255 
0.0291434 0.0485724 -0.0291434 0 0 255 255 
0.0291434 0.0582869 -0.0388579 0 0 255 255 
0.0388579 0.0582869 -0.0388579 0 0 255 255 
0.0291434 0.0582869 -0.0291434 0 0 255 255 
0.0388579 0.0582869 -0.0291434 0 0 255 255 
0.0291434 0.0388579 -0.019429 0 0 255 255 
0.0291434 0.0485724 -0.019429 0 0 255 255 
0.0291434 0.0388579 -0.00971448 0 0 255 255 
0.0291434 0.0485724 0 0 0 255 255 
0.0291434 0.0582869 -0.00971448 0 0 255 255 
0.0388579 0.0388579 -0.019429 0 0 255 255 
0.0291434 0.0388579 0 0 0 255 255 
0.0291434 0.0485724 -0.00971448 0 0 255 255 
0.0388579 0.0485724 -0.00971448 0 0 255 255 
0.0388579 0.0582869 -0.019429 0 0 255 255 
0.019429 0.0582869 -0.0388579 0 0 255 255 
0.019429 0.0680014 -0.0291434 0 0 255 255 
0.0291434 0.0680014 -0.0388579 0 0 255 255 
0.0291434 0.0777159 -0.019429 0 0 255 255 
0.0291434 0.0680014 -0.0291434 0 0 255 255 
0.0291434 0.0777159 -0.0291434 0 0 255 255 
0.0388579 0.0680014 -0.0291434 0 0 255 255 
0.0388579 0.0777159 -0.019429 0 0 255 255 
0.019429 0.0582869 -0.00971448 0 0 255 255 
0.0291434 0.0582869 -0.019429 0 0 255 255 
0.019429 0.0680014 -0.00971448 0 0 255 255 
0.0291434 0.0680014 0 0 0 255 255 
0.019429 0.0777159 -0.019429 0 0 255 255 
0.0291434 0.0777159 -0.00971448 0 0 255 255 
0.0291434 0.0680014 -0.019429 0 0 255 255 
0.0388579 0.0582869 -0.00971448 0 0 255 255 
0.0388579 0.0582869 0 0 0 255 255 
0.0291434 0.0680014 -0.00971448 0 0 255 255 
0.0485724 0 -0.0777159 0 0 255 255 
0.0388579 0.00971448 -0.0582869 0 0 255 255 
0.0485724 0.00971448 -0.0582869 0 0 255 255 
0.0485724 0.00971448 -0.0777159 0 0 255 255 
0.0485724 0 -0.0680014 0 0 255 255 
0.0582869 0 -0.0680014 0 0 255 255 
0.0485724 0.019429 -0.0680014 0 0 255 255 
0.0582869 0.019429 -0.0680014 0 0 255 255 
0.0485724 0.00971448 -0.0680014 0 0 255 255 
0.0582869 0.00971448 -0.0582869 0 0 255 255 
0.0388579 0 -0.0485724 0 0 255 255 
0.0485724 0 -0.0388579 0 0 255 255 
0.0485724 0.00971448 -0.0485724 0 0 255 255 
0.0485724 0.019429 -0.0582869 0 0 255 255 
0.0485724 0 -0.0582869 0 0 255 255 
0.0485724 0.00971448 -0.0388579 0 0 255 255 
0.0388579 0.019429 -0.0680014 0 0 255 255 
0.0388579 0.0291434 -0.0582869 0 0 255 255 
0.0485724 0.0291434 -0.0680014 0 0 255 255 
0.0485724 0.0388579 -0.0680014 0 0 255 255 
0.0388579 0.0291434 -0.0680014 0 0 255 255 
0.0485724 0.0291434 -0.0582869 0 0 255 255 
0.0582869 0.019429 -0.0582869 0 0 255 255 
0.0485724 0.0388579 -0.0582869 0 0 255 255 
0.0485724 0.019429 -0.0485724 0 0 255 255 
0.0485724 0.0291434 -0.0485724 0 0 255 255 
0.0485724 0.0291434 -0.0388579 0 0 255 255 
0.0582869 0.019429 -0.0485724 0 0 255 255 
0.0485724 0.0388579 -0.0485724 0 0 255 255 
0.0680014 0.00971448 -0.0680014 0 0 255 255 
0.0582869 0.00971448 -0.0680014 0 0 255 255 
0.0680014 0.00971448 -0.0777159 0 0 255 255 
0.0777159 0.019429 -0.0680014 0 0 255 255 
0.0582869 0.00971448 -0.0485724 0 0 255 255 
0.0680014 0.00971448 -0.0582869 0 0 255 255 
0.0680014 0.00971448 -0.0485724 0 0 255 255 
0.0777159 0 -0.0485724 0 0 255 255 
0.0680014 0.019429 -0.0582869 0 0 255 255 
0.0777159 0.00971448 -0.0485724 0 0 255 255 
0.0680014 0.00971448 -0.0388579 0 0 255 255 
0.0777159 0.019429 -0.0388579 0 0 255 255 
0.0582869 0.0291434 -0.0777159 0 0 255 255 
0.0582869 0.0388579 -0.0777159 0 0 255 255 
0.0680014 0.0291434 -0.0680014 0 0 255 255 
0.0582869 0.0291434 -0.0680014 0 0 255 255 
0.0680014 0.0291434 -0.0777159 0 0 255 255 
0.0680014 0.019429 -0.0680014 0 0 255 255 
0.0680014 0.0388579 -0.0680014 0 0 255 255 
0.0777159 0.0291434 -0.0582869 0 0 255 255 
0.0777159 0.0388579 -0.0680014 0 0 255 255 
0.0777159 0.0388579 -0.0582869 0 0 255 255 
0.0582869 0.019429 -0.0388579 0 0 255 255 
0.0680014 0.019429 -0.0485724 0 0 255 255 
0.0582869 0.0291434 -0.0582869 0 0 255 255 
0.0582869 0.0388579 -0.0582869 0 0 255 255 
0.0680014 0.0291434 -0.0582869 0 0 255 255 
0.0680014 0.0388579 -0.0582869 0 0 255 255 
0.0582869 0.0291434 -0.0485724 0 0 255 255 
0.0680014 0.0291434 -0.0485724 0 0 255 255 
0.0680014 0.0388579 -0.0388579 0 0 255 255 
0.0777159 0.0388579 -0.0485724 0 0 255 255 
0.0388579 0 -0.0388579 0 0 255 255 
0.0485724 0 -0.0291434 0 0 255 255 
0.0485724 0.00971448 -0.019429 0 0 255 255 
0.0388579 0.019429 -0.0388579 0 0 255 255 
0.0388579 0.019429 -0.0291434 0 0 255 255 
0.0485724 0.019429 -0.0388579 0 0 255 255 
0.0485724 0.019429 -0.019429 0 0 255 255 
0.0582869 0 -0.0291434 0 0 255 255 
0.0485724 0.019429 -0.0291434 0 0 255 255 
0.0485724 0.00971448 -0.0291434 0 0 255 255 
0.0582869 0.00971448 -0.019429 0 0 255 255 
0.0582869 0.019429 -0.0291434 0 0 255 255 
0.0582869 0.019429 -0.019429 0 0 255 255 
0.0485724 0 -0.00971448 0 0 255 255 
0.0388579 0.00971448 -0.019429 0 0 255 255 
0.0388579 0.00971448 0 0 0 255 255 
0.0388579 0.019429 0 0 0 255 255 
0.0582869 0 -0.019429 0 0 255 255 
0.0582869 0 -0.00971448 0 0 255 255 
0.0582869 0.00971448 -0.00971448 0 0 255 255 
0.0485724 0.00971448 -0.00971448 0 0 255 255 
0.0582869 0.019429 -0.00971448 0 0 255 255 
0.0388579 0.0291434 -0.019429 0 0 255 255 
0.0485724 0.0291434 -0.019429 0 0 255 255 
0.0485724 0.0291434 -0.0291434 0 0 255 255 
0.0485724 0.0388579 -0.0291434 0 0 255 255 
0.0582869 0.0291434 -0.0388579 0 0 255 255 
0.0582869 0.0388579 -0.0388579 0 0 255 255 
0.0582869 0.0291434 -0.0291434 0 0 255 255 
0.0582869 0.0291434 -0.019429 0 0 255 255 
0.0582869 0.0388579 -0.019429 0 0 255 255 
0.0485724 0.0291434 -0.00971448 0 0 255 255 
0.0388579 0.0291434 -0.00971448 0 0 255 255 
0.0485724 0.019429 -0.00971448 0 0 255 255 
0.0485724 0.0388579 -0.019429 0 0 255 255 
0.0485724 0.0388579 -0.00971448 0 0 255 255 
0.0388579 0.0291434 0 0 0 255 255 
0.0388579 0.0388579 0 0 0 255 255 
0.0582869 0.0388579 0 0 0 255 255 
0.0582869 0 -0.0388579 0 0 255 255 
0.0680014 0 -0.0291434 0 0 255 255 
0.0582869 0.00971448 -0.0388579 0 0 255 255 
0.0680014 0.019429 -0.0291434 0 0 255 255 
0.0582869 0.00971448 -0.0291434 0 0 255 255 
0.0680014 0.00971448 -0.019429 0 0 255 255 
0.0777159 0.00971448 -0.0388579 0 0 255 255 
0.0680014 0.00971448 -0.0291434 0 0 255 255 
0.0777159 0 -0.0291434 0 0 255 255 
0.0777159 0.019429 -0.0291434 0 0 255 255 
0.0777159 0.00971448 -0.019429 0 0 255 255 
0.0680014 0.00971448 -0.00971448 0 0 255 255 
0.0582869 0 0 0 0 255 255 
0.0777159 0.00971448 -0.00971448 0 0 255 255 
0.0777159 0 0 0 0 255 255 
0.0680014 0.0291434 -0.0291434 0 0 255 255 
0.0680014 0.0291434 -0.019429 0 0 255 255 
0.0680014 0.0291434 -0.0388579 0 0 255 255 
0.0680014 0.0388579 -0.019429 0 0 255 255 
0.0680014 0.019429 -0.0388579 0 0 255 255 
0.0777159 0.0291434 -0.0388579 0 0 255 255 
0.0777159 0.0291434 -0.019429 0 0 255 255 
0.0777159 0.0388579 -0.0388579 0 0 255 255 
0.0582869 0.0291434 -0.00971448 0 0 255 255 
0.0582869 0.0388579 -0.00971448 0 0 255 255 
0.0680014 0.0291434 -0.00971448 0 0 255 255 
0.0680014 0.019429 -0.019429 0 0 255 255 
0.0777159 0.0291434 -0.00971448 0 0 255 255 
0.0680014 0.019429 -0.00971448 0 0 255 255 
0.0777159 0.0291434 0 0 0 255 255 
0.0777159 0.0388579 -0.00971448 0 0 255 255 
0.0680014 0.0291434 0 0 0 255 255 
0.0680014 0.0388579 0 0 0 255 255 
0.0485724 0.0388579 -0.0777159 0 0 255 255 
0.0388579 0.0388579 -0.0680014 0 0 255 255 
0.0485724 0.0485724 -0.0777159 0 0 255 255 
0.0485724 0.0485724 -0.0680014 0 0 255 255 
0.0582869 0.0485724 -0.0777159 0 0 255 255 
0.0582869 0.0582869 -0.0777159 0 0 255 255 
0.0485724 0.0388579 -0.0388579 0 0 255 255 
0.0485724 0.0485724 -0.0388579 0 0 255 255 
0.0485724 0.0485724 -0.0582869 0 0 255 255 
0.0485724 0.0485724 -0.0485724 0 0 255 255 
0.0582869 0.0485724 -0.0582869 0 0 255 255 
0.0485724 0.0582869 -0.0485724 0 0 255 255 
0.0582869 0.0485724 -0.0485724 0 0 255 255 
0.0485724 0.0582869 -0.0388579 0 0 255 255 
0.0485724 0.0582869 -0.0777159 0 0 255 255 
0.0485724 0.0582869 -0.0680014 0 0 255 255 
0.0388579 0.0680014 -0.0680014 0 0 255 255 
0.0485724 0.0680014 -0.0777159 0 0 255 255 
0.0388579 0.0680014 -0.0582869 0 0 255 255 
0.0485724 0.0680014 -0.0680014 0 0 255 255 
0.0485724 0.0582869 -0.0582869 0 0 255 255 
0.0582869 0.0582869 -0.0680014 0 0 255 255 
0.0582869 0.0777159 -0.0680014 0 0 255 255 
0.0388579 0.0680014 -0.0485724 0 0 255 255 
0.0485724 0.0680014 -0.0485724 0 0 255 255 
0.0485724 0.0680014 -0.0388579 0 0 255 255 
0.0582869 0.0680014 -0.0485724 0 0 255 255 
0.0485724 0.0680014 -0.0582869 0 0 255 255 
0.0582869 0.0777159 -0.0582869 0 0 255 255 
0.0582869 0.0388579 -0.0680014 0 0 255 255 
0.0680014 0.0388579 -0.0777159 0 0 255 255 
0.0680014 0.0485724 -0.0582869 0 0 255 255 
0.0680014 0.0582869 -0.0777159 0 0 255 255 
0.0582869 0.0485724 -0.0680014 0 0 255 255 
0.0680014 0.0582869 -0.0680014 0 0 255 255 
0.0680014 0.0485724 -0.0680014 0 0 255 255 
0.0777159 0.0485724 -0.0680014 0 0 255 255 
0.0777159 0.0582869 -0.0680014 0 0 255 255 
0.0582869 0.0388579 -0.0485724 0 0 255 255 
0.0680014 0.0388579 -0.0485724 0 0 255 255 
0.0582869 0.0582869 -0.0485724 0 0 255 255 
0.0680014 0.0582869 -0.0485724 0 0 255 255 
0.0777159 0.0485724 -0.0485724 0 0 255 255 
0.0680014 0.0485724 -0.0485724 0 0 255 255 
0.0680014 0.0582869 -0.0388579 0 0 255 255 
0.0777159 0.0582869 -0.0388579 0 0 255 255 
0.0680014 0.0680014 -0.0777159 0 0 255 255 
0.0582869 0.0680014 -0.0582869 0 0 255 255 
0.0680014 0.0582869 -0.0582869 0 0 255 255 
0.0582869 0.0680014 -0.0777159 0 0 255 255 
0.0582869 0.0680014 -0.0680014 0 0 255 255 
0.0680014 0.0680014 -0.0680014 0 0 255 255 
0.0680014 0.0777159 -0.0680014 0 0 255 255 
0.0582869 0.0582869 -0.0582869 0 0 255 255 
0.0680014 0.0680014 -0.0485724 0 0 255 255 
0.0582869 0.0582869 -0.0388579 0 0 255 255 
0.0680014 0.0680014 -0.0582869 0 0 255 255 
0.0777159 0.0582869 -0.0582869 0 0 255 255 
0.0777159 0.0582869 -0.0485724 0 0 255 255 
0.0680014 0.0777159 -0.0485724 0 0 255 255 
0.0777159 0.0680014 -0.0582869 0 0 255 255 
0.0777159 0.0777159 -0.0485724 0 0 255 255 
0.0680014 0.0680014 -0.0388579 0 0 255 255 
0.0388579 0.0388579 -0.0291434 0 0 255 255 
0.0388579 0.0485724 -0.0291434 0 0 255 255 
0.0582869 0.0388579 -0.0291434 0 0 255 255 
0.0582869 0.0485724 -0.0388579 0 0 255 255 
0.0582869 0.0582869 -0.0291434 0 0 255 255 
0.0485724 0.0485724 -0.0291434 0 0 255 255 
0.0485724 0.0582869 -0.019429 0 0 255 255 
0.0582869 0.0485724 -0.0291434 0 0 255 255 
0.0388579 0.0388579 -0.00971448 0 0 255 255 
0.0388579 0.0485724 -0.019429 0 0 255 255 
0.0485724 0.0485724 0 0 0 255 255 
0.0485724 0.0485724 -0.019429 0 0 255 255 
0.0485724 0.0485724 -0.00971448 0 0 255 255 
0.0485724 0.0582869 0 0 0 255 255 
