ply
format ascii 1.0
comment VCGLIB generated
element vertex 1431
property float x
property float y
property float z
property uchar red
property uchar green
property uchar blue
end_header
-2.69258 -1.46712 1.07703 255 0 0
-2.33357 -1.51192 0.897525 255 0 0
-2.15406 -1.46549 0.897525 255 0 0
-2.08334 -1.97456 0.35901 255 0 0
-2.02822 -1.97456 0.35901 255 0 0
-1.97456 -1.83596 0.179505 255 0 0
-1.97456 -1.9301 0.35901 255 0 0
-1.84776 -1.79505 0.179505 255 0 0
-2.05401 -1.97456 0.538515 255 0 0
-2.02187 -1.97456 0.538515 255 0 0
-1.97456 -1.80594 0.538515 255 0 0
-1.97456 -1.79505 0.552622 255 0 0
-1.82576 -1.79505 0.35901 255 0 0
-1.97456 -1.65812 0.71802 255 0 0
-1.43604 -1.71055 0.35901 255 0 0
-1.43604 -1.71584 0.179505 255 0 0
-1.61555 -1.71015 0.35901 255 0 0
-1.61555 -1.70885 0.179505 255 0 0
-1.43604 -1.68172 0.538515 255 0 0
-1.45957 -1.61555 0.71802 255 0 0
-1.43604 -1.62878 0.71802 255 0 0
-1.61555 -1.56237 0.71802 255 0 0
-1.97456 -1.43604 0.879637 255 0 0
-1.79505 -1.43604 0.861325 255 0 0
-1.61555 -1.43604 0.831833 255 0 0
-1.43604 -1.61555 0.730494 255 0 0
-1.43604 -1.43604 0.834379 255 0 0
-2.51307 -1.07703 1.19347 255 0 0
-2.51307 -1.24481 1.07703 255 0 0
-2.51307 -0.71802 1.29891 255 0 0
-2.33357 -1.25654 0.964797 255 0 0
-2.15406 -1.25654 0.961823 255 0 0
-2.15406 -1.07703 0.966694 255 0 0
-2.33357 -0.749771 1.25654 255 0 0
-2.33357 -0.897525 1.16779 255 0 0
-2.15624 -0.897525 1.07703 255 0 0
-2.51307 -0.35901 1.36626 255 0 0
-2.69258 -0.179505 1.31997 255 0 0
-2.33357 -0.538515 1.32762 255 0 0
-2.33357 -0.35901 1.38696 255 0 0
-2.15406 -0.538515 1.30945 255 0 0
-2.15406 -0.629193 1.25654 255 0 0
-2.15406 -0.35901 1.40263 255 0 0
-2.33357 0 1.38973 255 0 0
-1.97456 -1.25654 0.940102 255 0 0
-1.97456 -1.07703 0.961319 255 0 0
-1.97456 -0.834444 1.07703 255 0 0
-1.97456 -0.897525 1.03243 255 0 0
-1.97456 -0.71802 1.15582 255 0 0
-1.61555 -1.28043 0.897525 255 0 0
-1.43604 -1.3057 0.897525 255 0 0
-1.74191 -0.71802 1.25654 255 0 0
-1.79505 -0.71802 1.20217 255 0 0
-1.61555 -0.892139 1.25654 255 0 0
-1.61555 -0.897525 1.25301 255 0 0
-1.97456 -0.35901 1.34436 255 0 0
-1.79505 -0.538515 1.3263 255 0 0
-1.79505 -0.179505 1.3938 255 0 0
-1.43604 -0.179505 1.53372 255 0 0
-1.43604 0 1.51661 255 0 0
-1.61555 0 1.45327 255 0 0
-1.25654 -1.75088 0.35901 255 0 0
-1.25654 -1.75511 0.179505 255 0 0
-1.25654 -1.7023 0.538515 255 0 0
-1.07703 -1.77137 0.538515 255 0 0
-1.25654 -1.64067 0.71802 255 0 0
-1.07703 -1.73144 0.71802 255 0 0
-0.897525 -1.82781 0.35901 255 0 0
-0.897525 -1.7947 0.538515 255 0 0
-0.897525 -1.79505 0.532472 255 0 0
-1.07703 -1.61555 0.805621 255 0 0
-1.07703 -1.49853 0.897525 255 0 0
-1.25654 -1.43604 0.879072 255 0 0
-1.22273 -1.43604 0.897525 255 0 0
-0.897525 -1.56373 0.897525 255 0 0
-0.897525 -1.48341 1.07703 255 0 0
-0.71802 -1.79005 0.71802 255 0 0
-0.897525 -1.43604 1.19021 255 0 0
-0.538515 -1.81597 0.538515 255 0 0
-0.549354 -1.79505 0.71802 255 0 0
-0.538515 -1.79505 0.693005 255 0 0
-0.567354 -1.79505 0.71802 255 0 0
-0.35901 -1.83385 0.35901 255 0 0
-0.0667663 -1.79505 0.35901 255 0 0
-0.179505 -1.73513 0.71802 255 0 0
0 -1.74387 0.538515 255 0 0
0 -1.68568 0.71802 255 0 0
-0.538515 -1.64987 0.897525 255 0 0
-0.388194 -1.61555 0.897525 255 0 0
-0.35901 -1.61555 0.892901 255 0 0
-0.522876 -1.43604 1.25654 255 0 0
-0.35901 -1.43604 1.2029 255 0 0
-0.5308 -1.43604 1.25654 255 0 0
-0.538515 -1.43604 1.25563 255 0 0
0 -1.61555 0.82061 255 0 0
0 -1.53904 0.897525 255 0 0
-0.179505 -1.43604 1.144 255 0 0
-0.0191691 -1.43604 1.07703 255 0 0
-1.25654 -1.24244 1.25654 255 0 0
-1.25654 -1.25654 1.23169 255 0 0
-1.25654 -1.07703 1.4295 255 0 0
-0.897525 -1.25654 1.41357 255 0 0
-0.464711 -1.25654 1.43604 255 0 0
-0.35901 -1.25654 1.4064 255 0 0
-0.538515 -1.26276 1.43604 255 0 0
0 -1.28048 1.25654 255 0 0
-0.179505 -1.14449 1.43604 255 0 0
-0.0775007 -1.07703 1.43604 255 0 0
0 -1.07703 1.40659 255 0 0
-1.25654 -0.897525 1.53295 255 0 0
-1.18309 -0.71802 1.61555 255 0 0
-1.07703 -0.71802 1.64756 255 0 0
-0.897525 -1.07703 1.53904 255 0 0
-0.897525 -0.35901 1.69117 255 0 0
-0.897525 -0.179505 1.6604 255 0 0
-0.35901 -0.538515 1.65943 255 0 0
-0.463897 0 1.61555 255 0 0
-0.35901 -0.0542713 1.61555 255 0 0
-0.538515 0 1.62968 255 0 0
-3.76961 0.179505 -0.0906578 255 0 0
-3.61094 0.71802 -0.538515 255 0 0
-3.5901 0.557432 -0.538515 255 0 0
-3.5901 0.538515 -0.525556 255 0 0
-3.6005 0.71802 -0.35901 255 0 0
-3.5901 0.538515 -0.433602 255 0 0
-3.5901 0.650477 -0.35901 255 0 0
-3.86027 0.538515 0 255 0 0
-3.84555 0.35901 0 255 0 0
-3.76961 0.538515 -0.10634 255 0 0
-3.66868 0.35901 0 255 0 0
-3.67597 0.538515 0 255 0 0
-3.65291 1.07703 -0.538515 255 0 0
-3.5901 1.07703 -0.645952 255 0 0
-3.5901 0.897525 -0.670695 255 0 0
-3.63305 0.897525 -0.538515 255 0 0
-3.6777 1.07703 -0.35901 255 0 0
-3.76961 1.07703 -0.107809 255 0 0
-3.8966 1.07703 0 255 0 0
-3.69802 1.07703 0 255 0 0
-3.5901 1.25654 -0.612584 255 0 0
-3.59909 1.43604 -0.538515 255 0 0
-3.69602 1.25654 -0.35901 255 0 0
-3.70648 1.43604 -0.35901 255 0 0
-3.7169 1.43604 -0.179505 255 0 0
-3.66924 1.25654 -0.179505 255 0 0
-3.4106 0.179505 -0.926868 255 0 0
-3.43597 0.179505 -0.897525 255 0 0
-3.4106 0.516417 -0.897525 255 0 0
-3.4106 0.538515 -0.894594 255 0 0
-3.55082 0.538515 -0.71802 255 0 0
-3.52611 0.35901 -0.71802 255 0 0
-3.23109 0.538515 -1.00594 255 0 0
-2.87208 0.179505 -1.22418 255 0 0
-3.05159 0.35901 -1.13288 255 0 0
-2.87208 0.35901 -1.20709 255 0 0
-3.10558 0.538515 -1.07703 255 0 0
-3.05159 0.538515 -1.10865 255 0 0
-3.52145 0.179505 -0.538515 255 0 0
-3.54627 0.179505 -0.179505 255 0 0
-3.5431 0.35901 -0.179505 255 0 0
-3.55016 0.538515 -0.179505 255 0 0
-3.56538 0.71802 -0.179505 255 0 0
-3.30339 0.897525 -0.897525 255 0 0
-3.4106 0.897525 -0.831809 255 0 0
-3.4106 1.07703 -0.790545 255 0 0
-3.46641 1.25654 -0.71802 255 0 0
-3.4106 1.25654 -0.764072 255 0 0
-3.25139 1.25654 -0.897525 255 0 0
-3.23109 1.25654 -0.910503 255 0 0
-3.4106 1.43604 -0.71895 255 0 0
-3.23109 1.43604 -0.871193 255 0 0
-3.05159 0.897525 -1.0661 255 0 0
-2.87208 1.07703 -1.14134 255 0 0
-2.87208 1.24108 -1.07703 255 0 0
-3.5901 0.8408 -0.179505 255 0 0
-3.76961 1.61555 -0.0867146 255 0 0
-3.61787 1.61555 -0.35901 255 0 0
-3.66983 1.61555 -0.179505 255 0 0
-3.5901 1.61555 -0.0763796 255 0 0
-3.5901 1.57718 0 255 0 0
-3.5901 1.79505 -0.124204 255 0 0
-3.76961 1.68461 0 255 0 0
-3.7121 1.79505 0 255 0 0
-3.23109 1.61555 -0.735317 255 0 0
-3.23109 1.63855 -0.71802 255 0 0
-3.05159 1.6945 -0.71802 255 0 0
-3.05159 1.61555 -0.819673 255 0 0
-2.87208 1.43604 -0.970099 255 0 0
-3.48104 1.61555 -0.538515 255 0 0
-3.23109 1.77217 -0.538515 255 0 0
-3.4106 1.76983 -0.35901 255 0 0
-3.4106 1.76283 -0.179505 255 0 0
-3.5901 1.65119 -0.179505 255 0 0
-3.4106 1.79505 -0.111651 255 0 0
-3.4106 1.74134 0 255 0 0
-3.23109 1.82868 -0.35901 255 0 0
-3.4106 1.97456 -0.0639664 255 0 0
-3.23109 2.02032 0 255 0 0
-3.05159 1.79505 -0.539544 255 0 0
-3.05159 1.8463 -0.35901 255 0 0
-3.05159 1.89045 -0.179505 255 0 0
-1.43604 0.326819 -1.43604 255 0 0
-2.69258 0.315571 -1.25654 255 0 0
-2.69258 0.35901 -1.25141 255 0 0
-2.69258 0.538515 -1.24179 255 0 0
-2.51469 0.71802 -1.25654 255 0 0
-2.51307 0.715591 -1.25654 255 0 0
-2.51307 0.538515 -1.27708 255 0 0
-2.58627 0.71802 -1.25654 255 0 0
-2.33357 0.179505 -1.35505 255 0 0
-2.15406 0.427718 -1.25654 255 0 0
-2.51307 0.897525 -1.23034 255 0 0
-2.51307 1.25654 -1.11211 255 0 0
-2.51307 1.32713 -1.07703 255 0 0
-2.15406 0.897525 -1.16919 255 0 0
-2.15406 0.71802 -1.18885 255 0 0
-2.15406 1.07703 -1.15929 255 0 0
-2.15406 1.36417 -1.07703 255 0 0
-1.97456 0.179505 -1.32954 255 0 0
-2.00352 0.35901 -1.25654 255 0 0
-1.97456 0.35901 -1.25744 255 0 0
-1.97456 0.538515 -1.20615 255 0 0
-1.97456 0.71802 -1.1765 255 0 0
-1.79505 0.538515 -1.23114 255 0 0
-1.79505 0.71802 -1.20569 255 0 0
-1.97456 0.897525 -1.15893 255 0 0
-1.97456 1.25654 -1.10749 255 0 0
-1.97456 1.43604 -1.01251 255 0 0
-1.43604 0.897525 -1.23031 255 0 0
-1.43604 0.833901 -1.25654 255 0 0
-1.61555 1.38832 -1.07703 255 0 0
-1.61555 1.25654 -1.12577 255 0 0
-1.67765 1.43604 -1.07703 255 0 0
-1.43604 1.1416 -1.07703 255 0 0
-1.51213 1.25654 -1.07703 255 0 0
-1.43604 1.07703 -1.13725 255 0 0
-1.43604 1.43604 -0.960248 255 0 0
-2.69258 1.61555 -0.814259 255 0 0
-2.15406 1.65332 -0.71802 255 0 0
-2.33357 1.66971 -0.71802 255 0 0
-2.69258 1.76967 -0.538515 255 0 0
-2.69258 1.8338 -0.35901 255 0 0
-2.69258 1.93109 0 255 0 0
-1.79505 1.61555 -0.820797 255 0 0
-1.79505 1.64758 -0.71802 255 0 0
-1.97456 1.64919 -0.71802 255 0 0
-1.43604 1.55166 -0.897525 255 0 0
-1.43604 1.64703 -0.71802 255 0 0
-1.97456 1.75964 -0.35901 255 0 0
-1.98018 1.79505 -0.179505 255 0 0
-1.97456 1.79453 -0.179505 255 0 0
-2.15406 1.8543 0 255 0 0
-1.61555 1.73183 -0.35901 255 0 0
-1.61555 1.76564 -0.179505 255 0 0
-1.61555 1.79505 -0.0917755 255 0 0
-1.07703 0.179505 -1.54822 255 0 0
-1.07703 0.467952 -1.43604 255 0 0
-0.71802 0.471357 -1.43604 255 0 0
-0.71802 0.35901 -1.50278 255 0 0
-1.07703 0.897525 -1.16295 255 0 0
-1.07703 0.987099 -1.07703 255 0 0
-1.25654 1.25654 -0.918825 255 0 0
-1.07703 1.43604 -0.795388 255 0 0
-0.897525 0.897525 -1.13705 255 0 0
-0.897525 0.961636 -1.07703 255 0 0
0 0.538515 -1.28043 255 0 0
0 0.35901 -1.37209 255 0 0
-0.35901 1.07703 -0.90688 255 0 0
-0.538515 1.36294 -0.71802 255 0 0
-0.71802 1.4228 -0.71802 255 0 0
-0.35901 1.43604 -0.625486 255 0 0
-0.179505 1.43604 -0.577169 255 0 0
-1.25654 1.59292 -0.71802 255 0 0
-0.897525 1.50415 -0.71802 255 0 0
-1.25654 1.69123 -0.35901 255 0 0
-1.25654 1.74472 -0.179505 255 0 0
-1.43604 1.79505 -0.0599521 255 0 0
-1.07703 1.66926 -0.35901 255 0 0
-1.07703 1.72649 -0.179505 255 0 0
-1.07703 1.77619 0 255 0 0
-1.25022 1.79505 0 255 0 0
-1.25654 1.79505 -0.00295678 255 0 0
-0.897525 1.70487 -0.179505 255 0 0
-0.71802 1.69698 -0.179505 255 0 0
-0.71802 1.74885 0 255 0 0
-0.538515 1.53035 -0.538515 255 0 0
-0.538515 1.60705 -0.35901 255 0 0
-0.538515 1.69508 -0.179505 255 0 0
-0.179505 1.4747 -0.538515 255 0 0
-0.179505 1.57743 -0.35901 255 0 0
-0.179505 1.67218 -0.179505 255 0 0
-0.179505 1.73383 0 255 0 0
-3.76961 0.179505 0.0906511 255 0 0
-3.84555 0.35901 0 255 0 0
-3.86027 0.538515 0 255 0 0
-3.76961 0.538515 0.10634 255 0 0
-3.61094 0.71802 0.538515 255 0 0
-3.5901 0.557432 0.538515 255 0 0
-3.5901 0.538515 0.525556 255 0 0
-3.6005 0.71802 0.35901 255 0 0
-3.5901 0.538515 0.433602 255 0 0
-3.5901 0.650477 0.35901 255 0 0
-3.76961 1.07703 0.107809 255 0 0
-3.8966 1.07703 0 255 0 0
-3.6777 1.07703 0.35901 255 0 0
-3.65291 1.07703 0.538515 255 0 0
-3.63305 0.897525 0.538515 255 0 0
-3.5901 1.07703 0.645952 255 0 0
-3.5901 0.897525 0.670695 255 0 0
-3.69602 1.25654 0.35901 255 0 0
-3.70648 1.43604 0.35901 255 0 0
-3.7169 1.43604 0.179505 255 0 0
-3.66924 1.25654 0.179505 255 0 0
-3.5901 1.25654 0.612584 255 0 0
-3.59909 1.43604 0.538515 255 0 0
-3.54627 0.179505 0.179505 255 0 0
-3.52145 0.179505 0.538515 255 0 0
-3.49595 0.179505 0.71802 255 0 0
-3.5431 0.35901 0.179505 255 0 0
-3.55016 0.538515 0.179505 255 0 0
-3.56538 0.71802 0.179505 255 0 0
-3.4106 0.179505 0.926868 255 0 0
-3.4106 0.516417 0.897525 255 0 0
-3.4106 0.538515 0.894594 255 0 0
-3.23109 0.538515 1.00594 255 0 0
-2.87208 0.179505 1.22418 255 0 0
-3.05159 0.35901 1.13288 255 0 0
-2.87208 0.35901 1.20709 255 0 0
-3.10558 0.538515 1.07703 255 0 0
-3.05159 0.538515 1.10865 255 0 0
-3.5901 0.8408 0.179505 255 0 0
-3.46641 1.25654 0.71802 255 0 0
-3.41152 1.43604 0.71802 255 0 0
-3.30339 0.897525 0.897525 255 0 0
-3.4106 1.07703 0.790545 255 0 0
-3.25139 1.25654 0.897525 255 0 0
-3.23109 1.25654 0.910503 255 0 0
-3.23109 1.43604 0.871193 255 0 0
-3.05159 0.897525 1.0661 255 0 0
-2.87208 1.07703 1.14134 255 0 0
-2.87208 1.24108 1.07703 255 0 0
-3.76961 1.61555 0.0867146 255 0 0
-3.5901 1.61555 0.0763795 255 0 0
-3.61787 1.61555 0.35901 255 0 0
-3.66983 1.61555 0.179505 255 0 0
-3.5901 1.79505 0.124204 255 0 0
-3.76961 1.68461 0 255 0 0
-3.7121 1.79505 0 255 0 0
-3.4106 1.79505 0.111651 255 0 0
-3.4106 1.76283 0.179505 255 0 0
-3.4106 1.76983 0.35901 255 0 0
-3.5901 1.65119 0.179505 255 0 0
-3.48104 1.61555 0.538515 255 0 0
-3.26407 1.61555 0.71802 255 0 0
-3.23109 1.77217 0.538515 255 0 0
-3.4106 1.97456 0.0639664 255 0 0
-3.23109 2.02032 0 255 0 0
-3.23109 1.82868 0.35901 255 0 0
-3.05159 1.79505 0.539544 255 0 0
-3.05159 1.6945 0.71802 255 0 0
-3.05159 1.89045 0.179505 255 0 0
-3.05159 1.8463 0.35901 255 0 0
-3.05159 1.61555 0.819673 255 0 0
-2.87208 1.43604 0.970099 255 0 0
-2.69258 0.355139 1.25654 255 0 0
-2.69258 0.35901 1.25631 255 0 0
-2.69258 0.538515 1.24179 255 0 0
-2.51469 0.71802 1.25654 255 0 0
-2.51307 0.715591 1.25654 255 0 0
-2.51307 0.538515 1.27708 255 0 0
-2.58627 0.71802 1.25654 255 0 0
-2.33357 0.179505 1.35505 255 0 0
-2.15406 0.427718 1.25654 255 0 0
-2.51307 0.897525 1.23034 255 0 0
-2.51307 1.25654 1.11211 255 0 0
-2.51307 1.32713 1.07703 255 0 0
-2.15406 0.897525 1.16919 255 0 0
-2.15406 0.71802 1.18885 255 0 0
-2.15406 1.07703 1.15929 255 0 0
-2.15406 1.36417 1.07703 255 0 0
-1.97456 0.179505 1.32954 255 0 0
-2.00352 0.35901 1.25654 255 0 0
-1.79505 0.179505 1.32996 255 0 0
-1.97456 0.35901 1.25744 255 0 0
-1.79505 0.35901 1.27549 255 0 0
-1.97456 0.538515 1.20615 255 0 0
-1.97456 0.71802 1.1765 255 0 0
-1.79505 0.538515 1.23114 255 0 0
-1.79505 0.71802 1.20569 255 0 0
-1.97456 0.897525 1.15893 255 0 0
-1.97456 1.35798 1.07703 255 0 0
-1.97456 1.43604 1.01251 255 0 0
-1.43604 0.897525 1.23031 255 0 0
-1.43604 0.833901 1.25654 255 0 0
-1.61555 1.38832 1.07703 255 0 0
-1.43604 1.43604 0.960248 255 0 0
-1.51213 1.25654 1.07703 255 0 0
-1.43604 1.25654 1.02681 255 0 0
-1.61555 1.43604 1.05551 255 0 0
-1.43604 1.1416 1.07703 255 0 0
-1.43604 1.07703 1.13725 255 0 0
-1.43604 0.326819 1.43604 255 0 0
-2.69258 1.76967 0.538515 255 0 0
-2.69258 1.67583 0.71802 255 0 0
-2.69258 1.8338 0.35901 255 0 0
-2.69258 1.93109 0 255 0 0
-2.15406 1.65332 0.71802 255 0 0
-1.98018 1.79505 0.179505 255 0 0
-1.97456 1.79453 0.179505 255 0 0
-1.97456 1.75964 0.35901 255 0 0
-1.97456 1.70998 0.538515 255 0 0
-2.15406 1.8543 0 255 0 0
-1.61555 1.76564 0.179505 255 0 0
-1.61555 1.79505 0.0917756 255 0 0
-1.61555 1.73183 0.35901 255 0 0
-1.79505 1.70183 0.538515 255 0 0
-1.61555 1.70215 0.538515 255 0 0
-1.79505 1.61555 0.820797 255 0 0
-1.43604 1.55166 0.897525 255 0 0
-1.43604 1.64703 0.71802 255 0 0
-1.07703 0.897525 1.16295 255 0 0
-1.07703 0.787378 1.25654 255 0 0
-1.07703 0.987099 1.07703 255 0 0
-1.25654 1.25654 0.918825 255 0 0
-1.07703 1.43604 0.795388 255 0 0
-0.897525 0.897525 1.13705 255 0 0
-0.897525 0.961636 1.07703 255 0 0
-0.179505 0.35901 1.407 255 0 0
0 0.538515 1.28043 255 0 0
0 0.35901 1.37209 255 0 0
-0.35901 1.31956 0.71802 255 0 0
-0.35901 1.43604 0.625486 255 0 0
-0.179505 1.43604 0.577169 255 0 0
-0.179505 1.28367 0.71802 255 0 0
-0.71802 1.4228 0.71802 255 0 0
-1.07703 0.179505 1.54822 255 0 0
-0.71802 0.35901 1.50278 255 0 0
-1.25654 1.74472 0.179505 255 0 0
-1.43604 1.79505 0.0599521 255 0 0
-1.25654 1.69123 0.35901 255 0 0
-1.07703 1.72649 0.179505 255 0 0
-1.07703 1.77619 0 255 0 0
-1.25022 1.79505 0 255 0 0
-1.25654 1.79505 0.00295678 255 0 0
-1.07703 1.66926 0.35901 255 0 0
-1.25654 1.6452 0.538515 255 0 0
-0.897525 1.70487 0.179505 255 0 0
-0.897525 1.64894 0.35901 255 0 0
-0.71802 1.69698 0.179505 255 0 0
-0.71802 1.74885 0 255 0 0
-1.07703 1.53938 0.71802 255 0 0
-0.897525 1.58819 0.538515 255 0 0
-0.897525 1.50415 0.71802 255 0 0
-0.538515 1.61555 0.335908 255 0 0
-0.538515 1.69508 0.179505 255 0 0
-0.538515 1.53035 0.538515 255 0 0
-0.179505 1.73383 0 255 0 0
-0.179505 1.67218 0.179505 255 0 0
-0.179505 1.61555 0.282601 255 0 0
-0.179505 1.4747 0.538515 255 0 0
1.72186 -3.05159 -0.897525 255 0 0
1.79505 -3.14146 -0.897525 255 0 0
1.79505 -3.05159 -0.979476 255 0 0
1.71564 -2.87208 -0.897525 255 0 0
1.75074 -3.05159 -0.71802 255 0 0
1.97456 -3.54278 -1.07703 255 0 0
1.88782 -3.4106 -1.07703 255 0 0
1.97456 -3.4106 -1.16442 255 0 0
1.97456 -3.23109 -1.09022 255 0 0
1.92973 -3.23109 -1.07703 255 0 0
2.15406 -3.56922 -1.07703 255 0 0
2.15406 -3.23109 -1.08127 255 0 0
2.15406 -3.4106 -1.21489 255 0 0
1.97456 -3.55416 -0.897525 255 0 0
1.82484 -3.23109 -0.897525 255 0 0
1.91091 -3.23109 -0.71802 255 0 0
1.92891 -3.4106 -0.71802 255 0 0
2.15406 -3.57938 -0.897525 255 0 0
1.97456 -3.05159 -0.972486 255 0 0
1.79505 -3.12351 -0.71802 255 0 0
1.97338 -3.05159 -0.71802 255 0 0
1.97456 -3.05159 -0.718216 255 0 0
1.97456 -3.08304 -0.71802 255 0 0
1.97456 -2.87208 -0.943327 255 0 0
1.79505 -2.87208 -0.969158 255 0 0
2.15406 -3.22713 -1.07703 255 0 0
2.12989 -3.05159 -0.897525 255 0 0
2.03356 -2.87208 -0.897525 255 0 0
1.97456 -2.9282 -0.71802 255 0 0
2.00438 -3.05159 -0.71802 255 0 0
1.97456 -2.87208 -0.731139 255 0 0
1.76409 -2.87208 -0.71802 255 0 0
1.79505 -2.87208 -0.70324 255 0 0
1.97456 -3.4106 -0.695514 255 0 0
2.15406 -3.55034 -0.71802 255 0 0
2.11182 -3.23109 -0.71802 255 0 0
2.15406 -3.3393 -0.71802 255 0 0
2.15406 -3.4106 -0.696678 255 0 0
2.33357 -3.4106 -1.11791 255 0 0
2.35017 -3.4106 -1.07703 255 0 0
2.33357 -3.49798 -1.07703 255 0 0
2.33357 -3.53289 -0.897525 255 0 0
2.33357 -3.37674 -0.897525 255 0 0
2.24397 -3.23109 -0.897525 255 0 0
0.538515 -1.62058 -0.35901 255 0 0
0.538515 -1.61555 -0.392239 255 0 0
0.538515 -1.45767 -0.71802 255 0 0
1.07703 -1.46856 -0.538515 255 0 0
0.897525 -1.43604 -0.600654 255 0 0
1.07703 -1.43604 -0.593736 255 0 0
1.07703 -1.52632 -0.35901 255 0 0
1.25654 -1.43604 -0.634601 255 0 0
1.25654 -1.51008 -0.538515 255 0 0
1.25654 -1.5358 -0.35901 255 0 0
0.179505 -0.71802 -1.46447 255 0 0
0.179505 -0.82839 -1.43604 255 0 0
0.179505 -0.35901 -1.50687 255 0 0
0.179505 -0.179505 -1.48895 255 0 0
0.643972 -1.07703 -1.07703 255 0 0
0.538515 -1.33201 -0.897525 255 0 0
0.538515 -0.840373 -1.25654 255 0 0
0.701752 -0.538515 -1.25654 255 0 0
0.71802 -0.35901 -1.31245 255 0 0
0.71802 -0.486531 -1.25654 255 0 0
0.538515 0 -1.34839 255 0 0
0.35901 0 -1.40715 255 0 0
0.71802 -0.179505 -1.32468 255 0 0
1.07703 -1.30179 -0.71802 255 0 0
1.07703 -1.25654 -0.776393 255 0 0
1.07703 -1.07703 -0.909415 255 0 0
0.952286 -0.71802 -1.07703 255 0 0
1.07703 -0.897525 -1.0158 255 0 0
1.25654 -1.10952 -0.897525 255 0 0
1.25654 -1.25654 -0.807509 255 0 0
1.35818 -1.25654 -0.897525 255 0 0
1.43604 -1.25654 -1.04875 255 0 0
1.25654 -1.33943 -0.71802 255 0 0
1.41522 -1.43604 -0.897525 255 0 0
1.37738 -0.897525 -1.07703 255 0 0
1.40744 -1.07703 -1.07703 255 0 0
1.43604 -1.07703 -1.11465 255 0 0
1.43604 -0.897525 -1.13806 255 0 0
1.25654 -0.897525 -1.01093 255 0 0
1.07703 -0.538515 -1.13051 255 0 0
1.07703 -0.35901 -1.23436 255 0 0
1.07703 -0.226591 -1.25654 255 0 0
1.07703 0 -1.25932 255 0 0
1.43604 -0.538515 -1.1438 255 0 0
1.6985 -2.69258 -0.897525 255 0 0
1.79505 -2.69258 -0.932333 255 0 0
1.79505 -2.69258 -0.725085 255 0 0
1.56412 -2.15406 -0.897525 255 0 0
1.61555 -2.15406 -0.739799 255 0 0
1.79505 -2.33357 -0.95995 255 0 0
1.69113 -2.33357 -0.71802 255 0 0
1.76253 -2.51307 -0.71802 255 0 0
1.61555 -2.15406 -0.937821 255 0 0
1.95946 -2.69258 -0.897525 255 0 0
1.88189 -2.69258 -0.897525 255 0 0
1.87474 -2.69258 -0.897525 255 0 0
1.97456 -2.69258 -0.790009 255 0 0
1.90725 -2.69258 -0.71802 255 0 0
1.97456 -2.33357 -0.854438 255 0 0
1.95671 -2.33357 -0.897525 255 0 0
1.91767 -2.51307 -0.71802 255 0 0
1.93818 -2.33357 -0.71802 255 0 0
1.97456 -2.33357 -0.75954 255 0 0
1.79505 -2.15406 -0.982734 255 0 0
1.99748 -2.15406 -0.897525 255 0 0
1.97456 -2.15406 -0.750062 255 0 0
1.79505 -2.51307 -0.696941 255 0 0
1.79505 -2.33357 -0.657528 255 0 0
1.79505 -2.15406 -0.647993 255 0 0
1.51827 -1.97456 -0.897525 255 0 0
1.61555 -1.97456 -0.97462 255 0 0
1.61555 -1.79505 -1.00035 255 0 0
1.49939 -1.79505 -0.897525 255 0 0
1.59431 -1.97456 -0.71802 255 0 0
1.56773 -1.79505 -0.71802 255 0 0
1.79505 -1.97456 -1.00254 255 0 0
1.79505 -1.79505 -1.01696 255 0 0
1.61555 -1.54904 -1.07703 255 0 0
1.61555 -1.43604 -1.10968 255 0 0
1.53194 -1.43604 -1.07703 255 0 0
1.79505 -1.61555 -1.07567 255 0 0
1.97456 -1.97456 -0.953071 255 0 0
2.02021 -1.97456 -0.897525 255 0 0
1.99005 -1.97456 -0.71802 255 0 0
1.97456 -1.61555 -1.00131 255 0 0
1.97456 -1.44414 -1.07703 255 0 0
2.04449 -1.61555 -0.897525 255 0 0
2.09279 -1.43604 -0.897525 255 0 0
2.00753 -1.61555 -0.71802 255 0 0
1.79505 -1.97456 -0.65245 255 0 0
1.61555 -1.61555 -0.630424 255 0 0
1.61555 -1.5898 -0.538515 255 0 0
1.79505 -1.61555 -0.611497 255 0 0
1.79505 -1.58741 -0.538515 255 0 0
1.97456 -1.58533 -0.538515 255 0 0
2.15406 -1.53897 -0.538515 255 0 0
2.15406 -1.43604 -0.631646 255 0 0
2.09189 -1.43604 -0.71802 255 0 0
2.33357 -1.5938 -0.35901 255 0 0
2.39042 -1.43604 -0.538515 255 0 0
2.33357 -1.46363 -0.538515 255 0 0
2.51307 -1.59502 -0.35901 255 0 0
2.51307 -1.43604 -0.513051 255 0 0
2.69258 -1.43604 -0.454319 255 0 0
2.69258 -1.5323 -0.35901 255 0 0
1.61555 -1.25654 -1.14401 255 0 0
1.61555 -1.07703 -1.17181 255 0 0
1.79505 -1.25654 -1.16592 255 0 0
1.79505 -1.07703 -1.1962 255 0 0
1.61555 -0.897525 -1.20114 255 0 0
1.79505 -0.897525 -1.19538 255 0 0
1.79505 -0.71802 -1.21387 255 0 0
1.97456 -1.07703 -1.18033 255 0 0
2.15406 -1.25654 -0.756955 255 0 0
2.15406 -1.31984 -0.71802 255 0 0
2.13928 -1.25654 -0.897525 255 0 0
2.15406 -1.20474 -0.897525 255 0 0
2.14635 -1.07703 -1.07703 255 0 0
2.15406 -1.07703 -1.06813 255 0 0
1.97456 -0.897525 -1.18452 255 0 0
1.74472 -0.538515 -1.25654 255 0 0
1.79505 -0.538515 -1.24877 255 0 0
1.79505 -0.35901 -1.27844 255 0 0
1.79505 -0.497705 -1.25654 255 0 0
1.79505 -0.179505 -1.27113 255 0 0
2.15406 -0.71802 -1.10598 255 0 0
2.15406 -0.538515 -1.17127 255 0 0
2.11548 -0.35901 -1.25654 255 0 0
2.15406 -0.27682 -1.25654 255 0 0
2.15406 -0.179505 -1.27289 255 0 0
2.15406 0 -1.28258 255 0 0
1.97456 0 -1.27568 255 0 0
2.19266 -1.07703 -0.897525 255 0 0
2.33357 -1.07703 -0.794501 255 0 0
2.49377 -1.07703 -0.71802 255 0 0
2.27033 -0.897525 -0.897525 255 0 0
2.33357 -0.825504 -0.897525 255 0 0
2.33357 -0.897525 -0.856869 255 0 0
2.51307 -1.04194 -0.71802 255 0 0
2.51307 -0.897525 -0.75125 255 0 0
2.51307 -0.71802 -0.79009 255 0 0
2.41139 -0.71802 -0.897525 255 0 0
2.54726 -0.897525 -0.71802 255 0 0
2.57293 -0.71802 -0.71802 255 0 0
2.51307 -1.35927 -0.538515 255 0 0
2.51307 -1.25654 -0.612851 255 0 0
2.67896 -1.07703 -0.538515 255 0 0
2.69258 -1.25654 -0.486997 255 0 0
2.87208 -1.07703 -0.374955 255 0 0
2.87208 -1.25654 -0.360201 255 0 0
2.69258 -0.914748 -0.538515 255 0 0
2.69258 -0.897525 -0.540542 255 0 0
2.69258 -0.71802 -0.608013 255 0 0
2.87208 -0.897525 -0.388745 255 0 0
2.7623 -0.71802 -0.538515 255 0 0
2.50212 -0.35901 -1.07703 255 0 0
2.51307 -0.538515 -0.970002 255 0 0
2.51307 -0.223998 -1.07703 255 0 0
2.51307 -0.179505 -1.09544 255 0 0
2.51307 0 -1.15605 255 0 0
2.57195 -0.538515 -0.897525 255 0 0
2.65979 -0.538515 -0.71802 255 0 0
2.64565 -0.35901 -0.897525 255 0 0
2.69258 -0.457358 -0.71802 255 0 0
2.69258 -0.35901 -0.813244 255 0 0
2.6552 -0.179505 -0.897525 255 0 0
2.7368 -0.179505 -0.71802 255 0 0
2.77866 0 -0.71802 255 0 0
2.69258 -0.538515 -0.662102 255 0 0
2.84916 -0.538515 -0.538515 255 0 0
2.8708 -0.35901 -0.538515 255 0 0
2.87208 -0.336579 -0.538515 255 0 0
2.87208 -0.179505 -0.568485 255 0 0
2.90457 -1.25654 -0.179505 255 0 0
2.87208 -1.34375 -0.179505 255 0 0
2.93923 -1.07703 -0.179505 255 0 0
2.98868 -0.897525 -0.179505 255 0 0
3.05159 -0.71802 -0.290377 255 0 0
3.05159 -0.775031 -0.179505 255 0 0
3.03684 -0.538515 -0.35901 255 0 0
3.05159 -0.508585 -0.35901 255 0 0
3.05159 -0.35901 -0.405763 255 0 0
3.22844 -0.538515 -0.179505 255 0 0
3.02091 0 -0.538515 255 0 0
3.05159 0 -0.519217 255 0 0
3.21957 -0.179505 -0.35901 255 0 0
3.23109 -0.158764 -0.35901 255 0 0
3.23109 0 -0.413705 255 0 0
3.35732 -0.35901 -0.179505 255 0 0
3.4106 0 -0.306933 255 0 0
3.5901 0 -0.192718 255 0 0
3.5901 -0.0188283 -0.179505 255 0 0
1.79505 -3.12351 0.71802 255 0 0
1.75074 -3.05159 0.71802 255 0 0
1.79505 -3.05159 0.690224 255 0 0
1.76409 -2.87208 0.71802 255 0 0
1.79505 -2.87208 0.70324 255 0 0
1.97456 -3.4106 0.695514 255 0 0
1.92891 -3.4106 0.71802 255 0 0
1.97456 -3.50022 0.71802 255 0 0
1.91091 -3.23109 0.71802 255 0 0
1.97456 -3.23109 0.693073 255 0 0
2.15406 -3.55034 0.71802 255 0 0
2.11182 -3.23109 0.71802 255 0 0
2.15406 -3.3393 0.71802 255 0 0
2.15406 -3.4106 0.696678 255 0 0
1.97338 -3.05159 0.71802 255 0 0
1.97456 -3.05089 0.71802 255 0 0
1.97456 -2.9282 0.71802 255 0 0
1.96038 -2.87208 0.71802 255 0 0
1.99424 -3.05159 0.71802 255 0 0
1.97456 -3.08304 0.71802 255 0 0
2.00438 -3.05159 0.71802 255 0 0
1.72186 -3.05159 0.897525 255 0 0
1.79505 -3.14146 0.897525 255 0 0
1.71564 -2.87208 0.897525 255 0 0
1.79505 -3.05159 0.979476 255 0 0
1.97456 -3.54278 1.07703 255 0 0
1.84462 -3.4106 0.897525 255 0 0
1.82484 -3.23109 0.897525 255 0 0
1.97456 -3.4106 1.16442 255 0 0
1.97456 -3.23109 1.09022 255 0 0
1.92973 -3.23109 1.07703 255 0 0
2.15406 -3.56922 1.07703 255 0 0
2.15406 -3.23109 1.08127 255 0 0
2.15406 -3.4106 1.21489 255 0 0
1.97456 -3.05159 0.972486 255 0 0
1.97456 -2.87208 0.943327 255 0 0
1.79505 -2.87208 0.969157 255 0 0
2.15406 -3.22692 1.07703 255 0 0
2.12989 -3.05159 0.897525 255 0 0
2.03356 -2.87208 0.897525 255 0 0
2.33357 -3.53289 0.897525 255 0 0
2.33357 -3.49798 1.07703 255 0 0
2.33357 -3.37674 0.897525 255 0 0
2.24397 -3.23109 0.897525 255 0 0
2.33357 -3.39573 1.07703 255 0 0
0.538515 -1.62058 0.35901 255 0 0
0.538515 -1.61555 0.392239 255 0 0
0.538515 -1.45767 0.71802 255 0 0
1.07703 -1.46856 0.538515 255 0 0
1.07703 -1.52632 0.35901 255 0 0
0.897525 -1.43604 0.600654 255 0 0
1.07703 -1.43604 0.593736 255 0 0
1.25654 -1.51008 0.538515 255 0 0
1.25654 -1.5358 0.35901 255 0 0
1.25654 -1.43604 0.634601 255 0 0
0.538515 -1.25654 0.98285 255 0 0
0.538515 -1.33201 0.897525 255 0 0
0.643972 -1.07703 1.07703 255 0 0
0.538515 -0.840373 1.25654 255 0 0
0.701752 -0.538515 1.25654 255 0 0
0.538515 -0.538515 1.34791 255 0 0
0.71802 -0.35901 1.31245 255 0 0
0.71802 -0.486531 1.25654 255 0 0
0.538515 -0.35901 1.36745 255 0 0
0.35901 -0.179505 1.42972 255 0 0
0.538515 -0.179505 1.3705 255 0 0
0.538515 0 1.34839 255 0 0
0.35901 0 1.40715 255 0 0
0.71802 -0.179505 1.32468 255 0 0
1.25654 -1.33943 0.71802 255 0 0
1.07703 -1.30179 0.71802 255 0 0
1.07703 -1.07703 0.909415 255 0 0
0.952285 -0.71802 1.07703 255 0 0
1.07703 -0.897525 1.0158 255 0 0
1.25654 -1.10952 0.897525 255 0 0
1.35818 -1.25654 0.897525 255 0 0
1.41522 -1.43604 0.897525 255 0 0
1.43604 -1.25654 1.04875 255 0 0
1.25654 -0.897525 1.01093 255 0 0
1.37738 -0.897525 1.07703 255 0 0
1.40744 -1.07703 1.07703 255 0 0
1.43604 -1.07703 1.11465 255 0 0
1.43604 -0.897525 1.13806 255 0 0
1.07703 -0.538515 1.13051 255 0 0
1.07703 -0.35901 1.23436 255 0 0
1.07703 -0.226591 1.25654 255 0 0
1.07703 0 1.25932 255 0 0
1.43604 -0.538515 1.1438 255 0 0
1.79505 -2.51307 0.696941 255 0 0
1.79505 -2.33357 0.657528 255 0 0
1.69113 -2.33357 0.71802 255 0 0
1.76253 -2.51307 0.71802 255 0 0
1.63675 -2.15406 0.71802 255 0 0
1.79505 -2.15406 0.647993 255 0 0
1.81803 -2.69258 0.71802 255 0 0
1.90725 -2.69258 0.71802 255 0 0
1.94542 -2.15406 0.71802 255 0 0
1.93818 -2.33357 0.71802 255 0 0
1.6985 -2.69258 0.897525 255 0 0
1.79505 -2.69258 0.932333 255 0 0
1.56412 -2.15406 0.897525 255 0 0
1.61555 -2.15406 0.739799 255 0 0
1.79505 -2.33357 0.95995 255 0 0
1.61555 -2.15406 0.937821 255 0 0
1.88189 -2.69258 0.897525 255 0 0
1.87474 -2.69258 0.897525 255 0 0
1.97456 -2.69258 0.790009 255 0 0
1.95946 -2.69258 0.897525 255 0 0
1.97456 -2.33357 0.854438 255 0 0
1.95671 -2.33357 0.897525 255 0 0
1.79505 -2.15406 0.982734 255 0 0
1.99748 -2.15406 0.897525 255 0 0
1.79505 -1.97456 0.65245 255 0 0
1.61555 -1.97456 0.700238 255 0 0
1.61555 -1.61555 0.630424 255 0 0
1.45571 -1.61555 0.71802 255 0 0
1.61555 -1.5898 0.538515 255 0 0
1.79505 -1.61555 0.611497 255 0 0
1.79505 -1.58741 0.538515 255 0 0
1.97456 -1.97456 0.698113 255 0 0
1.97456 -1.61555 0.635955 255 0 0
1.97456 -1.58533 0.538515 255 0 0
2.01481 -1.79505 0.71802 255 0 0
2.15406 -1.53897 0.538515 255 0 0
2.15406 -1.43604 0.631646 255 0 0
2.09189 -1.43604 0.71802 255 0 0
1.51827 -1.97456 0.897525 255 0 0
1.61555 -1.97456 0.97462 255 0 0
1.61555 -1.79505 1.00035 255 0 0
1.79505 -1.97456 1.00254 255 0 0
1.79505 -1.79505 1.01696 255 0 0
1.61555 -1.61555 1.05197 255 0 0
1.53195 -1.43604 1.07703 255 0 0
1.79505 -1.61555 1.07567 255 0 0
1.61555 -1.43604 1.10968 255 0 0
1.97456 -1.97456 0.953071 255 0 0
2.02021 -1.97456 0.897525 255 0 0
1.97456 -1.61555 1.00131 255 0 0
1.97456 -1.44414 1.07703 255 0 0
2.04449 -1.61555 0.897525 255 0 0
2.09279 -1.43604 0.897525 255 0 0
2.33357 -1.5938 0.35901 255 0 0
2.39042 -1.43604 0.538515 255 0 0
2.33357 -1.46363 0.538515 255 0 0
2.51307 -1.59502 0.35901 255 0 0
2.51307 -1.43604 0.513051 255 0 0
2.69258 -1.43604 0.454319 255 0 0
2.69258 -1.5323 0.35901 255 0 0
1.61555 -1.25654 1.14401 255 0 0
1.61555 -1.07703 1.17181 255 0 0
1.79505 -1.25654 1.16592 255 0 0
1.79505 -1.07703 1.1962 255 0 0
1.61555 -0.897525 1.20114 255 0 0
1.79505 -0.897525 1.19538 255 0 0
1.79505 -0.71802 1.21387 255 0 0
2.15406 -1.25654 0.756955 255 0 0
2.15406 -1.31984 0.71802 255 0 0
2.13928 -1.25654 0.897525 255 0 0
2.15406 -1.20474 0.897525 255 0 0
2.14635 -1.07703 1.07703 255 0 0
2.15406 -1.07703 1.06813 255 0 0
1.97456 -1.07703 1.18033 255 0 0
1.97456 -0.897525 1.18452 255 0 0
1.74472 -0.538515 1.25654 255 0 0
1.79505 -0.538515 1.24877 255 0 0
1.79505 -0.35901 1.27844 255 0 0
1.79505 -0.497705 1.25654 255 0 0
1.79505 -0.179505 1.27113 255 0 0
2.15406 -0.71802 1.10598 255 0 0
2.15406 -0.538515 1.17127 255 0 0
2.11548 -0.35901 1.25654 255 0 0
2.15406 -0.27682 1.25654 255 0 0
2.15406 -0.179505 1.27289 255 0 0
2.15406 0 1.28258 255 0 0
1.97456 0 1.27568 255 0 0
2.33357 -1.25654 0.696282 255 0 0
2.51307 -1.35927 0.538515 255 0 0
2.51307 -1.25654 0.612851 255 0 0
2.69258 -1.25654 0.486997 255 0 0
2.67896 -1.07703 0.538515 255 0 0
2.51307 -1.07703 0.707484 255 0 0
2.87208 -1.07703 0.374955 255 0 0
2.87208 -1.25654 0.360201 255 0 0
2.69258 -0.914748 0.538515 255 0 0
2.69258 -0.897525 0.540542 255 0 0
2.54726 -0.897525 0.71802 255 0 0
2.57293 -0.71802 0.71802 255 0 0
2.69258 -0.71802 0.608013 255 0 0
2.87208 -0.897525 0.388745 255 0 0
2.7623 -0.71802 0.538515 255 0 0
2.33357 -1.07703 0.794501 255 0 0
2.19266 -1.07703 0.897525 255 0 0
2.27033 -0.897525 0.897525 255 0 0
2.33357 -0.897525 0.856869 255 0 0
2.33357 -0.825504 0.897525 255 0 0
2.51307 -0.897525 0.75125 255 0 0
2.51307 -0.71802 0.79009 255 0 0
2.41139 -0.71802 0.897525 255 0 0
2.69258 -0.538515 0.662102 255 0 0
2.65979 -0.538515 0.71802 255 0 0
2.69258 -0.457358 0.71802 255 0 0
2.84916 -0.538515 0.538515 255 0 0
2.7368 -0.179505 0.71802 255 0 0
2.8708 -0.35901 0.538515 255 0 0
2.87208 -0.336579 0.538515 255 0 0
2.87208 -0.179505 0.568485 255 0 0
2.51307 -0.538515 0.970002 255 0 0
2.50212 -0.35901 1.07703 255 0 0
2.51307 -0.223998 1.07703 255 0 0
2.51307 -0.179505 1.09544 255 0 0
2.51307 0 1.15605 255 0 0
2.57195 -0.538515 0.897525 255 0 0
2.64565 -0.35901 0.897525 255 0 0
2.6552 -0.179505 0.897525 255 0 0
2.77866 0 0.71802 255 0 0
2.90457 -1.25654 0.179505 255 0 0
2.87208 -1.34375 0.179505 255 0 0
2.93744 -1.07703 0.179505 255 0 0
2.98868 -0.897525 0.179505 255 0 0
3.05159 -0.71802 0.290377 255 0 0
3.05159 -0.775031 0.179505 255 0 0
3.05159 -0.538515 0.3498 255 0 0
3.22844 -0.538515 0.179505 255 0 0
3.05159 -0.35901 0.405763 255 0 0
3.02091 0 0.538515 255 0 0
3.05159 0 0.519217 255 0 0
3.21957 -0.179505 0.35901 255 0 0
3.23109 -0.158764 0.35901 255 0 0
3.23109 0 0.413705 255 0 0
3.35732 -0.35901 0.179505 255 0 0
3.4106 0 0.306933 255 0 0
3.5901 0 0.192718 255 0 0
3.5901 -0.0188283 0.179505 255 0 0
0.11166 0.179505 -1.43604 255 0 0
0.179505 0.120053 -1.43604 255 0 0
0.71802 0.179505 -1.27741 255 0 0
0.538515 0.35901 -1.25227 255 0 0
0.71802 0.35901 -1.22544 255 0 0
0.35901 0.787085 -1.07703 255 0 0
0.35901 1.07703 -0.84639 255 0 0
0.35901 1.20882 -0.71802 255 0 0
0.35901 1.38574 -0.538515 255 0 0
1.07703 0.179505 -1.23206 255 0 0
1.07703 0.35901 -1.19057 255 0 0
1.07703 0.538515 -1.12396 255 0 0
0.897525 0.949059 -0.897525 255 0 0
0.897525 1.07703 -0.810578 255 0 0
0.71802 1.25654 -0.654212 255 0 0
0.897525 1.21166 -0.71802 255 0 0
0.897525 1.25654 -0.684011 255 0 0
0.35901 1.54723 -0.35901 255 0 0
0.35901 1.61555 -0.261315 255 0 0
0.35901 1.66939 -0.179505 255 0 0
0.35901 1.7328 0 255 0 0
0.897525 1.5694 -0.35901 255 0 0
0.897525 1.61555 -0.295304 255 0 0
1.79505 0.179505 -1.23828 255 0 0
1.79505 0.35901 -1.2063 255 0 0
1.61555 0.538515 -1.13726 255 0 0
1.79505 0.538515 -1.13921 255 0 0
2.15406 0.538515 -1.10737 255 0 0
1.61555 0.897525 -1.00598 255 0 0
1.61555 1.07703 -0.901152 255 0 0
1.61555 1.35656 -0.71802 255 0 0
2.15406 0.71802 -1.02429 255 0 0
2.15406 0.897525 -0.921025 255 0 0
1.97456 0.897525 -0.981431 255 0 0
1.97456 1.25654 -0.756184 255 0 0
2.50415 0.35901 -1.07703 255 0 0
2.51307 0.34557 -1.07703 255 0 0
2.51307 0.538515 -0.985315 255 0 0
2.69258 0.179505 -0.962836 255 0 0
2.68869 0.35901 -0.897525 255 0 0
2.69258 0.348256 -0.897525 255 0 0
2.7605 0.35901 -0.71802 255 0 0
2.79079 0.179505 -0.71802 255 0 0
2.6131 0.538515 -0.897525 255 0 0
2.69258 0.643675 -0.71802 255 0 0
2.66065 0.71802 -0.71802 255 0 0
2.69258 0.538515 -0.73543 255 0 0
2.87208 0.538515 -0.613481 255 0 0
2.87208 0.35901 -0.649593 255 0 0
2.39035 1.07703 -0.71802 255 0 0
2.54098 0.897525 -0.71802 255 0 0
2.33357 1.38959 -0.538515 255 0 0
2.21471 1.43604 -0.538515 255 0 0
2.15406 1.43604 -0.55657 255 0 0
2.51307 1.25654 -0.541127 255 0 0
2.51307 1.07703 -0.622126 255 0 0
2.69258 1.07703 -0.545546 255 0 0
2.69258 1.25654 -0.484772 255 0 0
2.87208 1.25654 -0.448201 255 0 0
2.87208 1.07703 -0.495454 255 0 0
2.69258 1.43604 -0.41164 255 0 0
2.87208 1.43604 -0.393587 255 0 0
1.61555 1.51865 -0.538515 255 0 0
1.61555 1.64739 -0.35901 255 0 0
1.61555 1.75458 -0.179505 255 0 0
1.43604 1.75169 -0.179505 255 0 0
1.97456 1.49468 -0.538515 255 0 0
1.97456 1.65304 -0.35901 255 0 0
1.97456 1.61555 -0.395086 255 0 0
1.97456 1.74277 -0.179505 255 0 0
1.79505 1.78769 0 255 0 0
1.97456 1.78004 0 255 0 0
2.15406 1.6389 -0.35901 255 0 0
2.15406 1.75745 -0.179505 255 0 0
2.51307 1.61555 -0.35081 255 0 0
2.50276 1.79505 -0.179505 255 0 0
2.51307 1.79505 -0.182805 255 0 0
2.69258 1.5596 -0.35901 255 0 0
2.87208 1.61555 -0.334819 255 0 0
2.87208 1.53115 -0.35901 255 0 0
2.87208 1.79505 -0.233686 255 0 0
3.05159 0.179505 -0.579793 255 0 0
3.05159 0.35901 -0.578862 255 0 0
3.14003 0.179505 -0.538515 255 0 0
3.1478 0.35901 -0.538515 255 0 0
3.08171 0.538515 -0.538515 255 0 0
3.05159 0.538515 -0.545352 255 0 0
3.4106 0.119721 -0.35901 255 0 0
3.4106 0.179505 -0.388919 255 0 0
3.4106 0.35901 -0.44637 255 0 0
3.4106 0.538515 -0.465949 255 0 0
3.5901 0.71802 -0.451523 255 0 0
3.23109 1.07703 -0.480333 255 0 0
3.23109 1.25654 -0.457367 255 0 0
3.5901 1.07703 -0.494397 255 0 0
3.4106 1.43604 -0.432983 255 0 0
3.5901 1.43604 -0.469546 255 0 0
3.76961 0.35901 -0.254285 255 0 0
3.76961 0.219217 -0.179505 255 0 0
3.76961 0.229631 0 255 0 0
3.76961 0.537077 -0.35901 255 0 0
3.76961 0.538515 -0.359936 255 0 0
3.94911 0.675294 -0.35901 255 0 0
3.94911 0.71802 -0.388142 255 0 0
3.94911 0.538515 -0.267556 255 0 0
4.04514 0.538515 -0.179505 255 0 0
4.12862 0.71802 -0.32784 255 0 0
4.12862 0.629912 -0.179505 255 0 0
3.94911 0.897525 -0.457863 255 0 0
3.76961 1.25654 -0.515187 255 0 0
4.12862 0.897525 -0.443078 255 0 0
4.30812 0.806502 -0.35901 255 0 0
4.30812 0.897525 -0.436024 255 0 0
4.23218 1.07703 -0.538515 255 0 0
4.12862 1.07703 -0.510589 255 0 0
4.12862 1.25654 -0.552105 255 0 0
4.12862 1.43604 -0.579532 255 0 0
4.07025 1.43604 -0.538515 255 0 0
4.30812 1.07703 -0.561003 255 0 0
4.30812 1.25654 -0.640171 255 0 0
4.30812 1.43604 -0.657712 255 0 0
4.04854 2.33357 -1.43604 255 0 0
4.08584 2.15406 -1.43604 255 0 0
4.08463 2.33357 -1.43604 255 0 0
4.08657 2.15406 -1.43604 255 0 0
3.17711 1.61555 -0.35901 255 0 0
3.23109 1.79505 -0.311576 255 0 0
3.23109 1.64213 -0.35901 255 0 0
3.05159 1.97456 -0.0675364 255 0 0
2.96005 1.97456 0 255 0 0
2.87208 1.9464 0 255 0 0
3.4106 1.61555 -0.399318 255 0 0
3.4106 1.79505 -0.354521 255 0 0
3.4106 1.75813 -0.35901 255 0 0
3.5901 1.79505 -0.403172 255 0 0
3.58998 1.97456 -0.35901 255 0 0
3.5901 1.97456 -0.359055 255 0 0
3.4106 1.97456 -0.281061 255 0 0
3.4106 2.07838 -0.179505 255 0 0
3.23109 2.06768 0 255 0 0
3.5901 2.15406 -0.235967 255 0 0
3.53177 2.15406 -0.179505 255 0 0
3.42096 2.15406 0 255 0 0
3.4106 2.14924 0 255 0 0
4.04758 1.97456 -1.07703 255 0 0
4.12862 1.82903 -1.07703 255 0 0
4.12862 2.07362 -1.25654 255 0 0
4.12862 1.97456 -1.28207 255 0 0
4.10445 1.97456 -1.25654 255 0 0
4.12862 2.13594 -1.25654 255 0 0
4.12862 2.15406 -1.27904 255 0 0
4.02985 2.15406 -1.07703 255 0 0
4.12862 2.09739 -1.07703 255 0 0
4.13534 1.97456 -1.07703 255 0 0
4.12862 2.02317 -1.07703 255 0 0
4.02919 1.97456 -0.897525 255 0 0
4.12862 1.84864 -0.897525 255 0 0
4.03852 2.15406 -0.897525 255 0 0
3.97386 2.15406 -0.71802 255 0 0
4.03328 1.97456 -0.71802 255 0 0
4.16812 1.97456 -0.897525 255 0 0
4.18364 2.15406 -0.897525 255 0 0
4.30812 2.02852 -0.71802 255 0 0
3.76961 1.61555 -0.467488 255 0 0
3.94911 1.61555 -0.507851 255 0 0
3.94911 1.79505 -0.476621 255 0 0
3.94911 1.97456 -0.526477 255 0 0
3.86986 2.15406 -0.538515 255 0 0
3.94911 2.15406 -0.681112 255 0 0
4.07498 1.61555 -0.538515 255 0 0
4.08076 1.79505 -0.538515 255 0 0
4.30812 1.61555 -0.641678 255 0 0
4.30812 1.79505 -0.610537 255 0 0
4.27997 1.97456 -0.538515 255 0 0
4.30812 2.0707 -0.538515 255 0 0
4.30812 2.0615 -0.538515 255 0 0
4.30812 2.15406 -0.562894 255 0 0
4.30812 2.15406 -0.696066 255 0 0
4.30812 1.97456 -0.551325 255 0 0
4.08391 2.33357 -1.25654 255 0 0
4.12862 2.41297 -1.25654 255 0 0
4.11533 2.33357 -1.07703 255 0 0
4.12862 2.35008 -1.07703 255 0 0
4.18948 2.33357 -1.25654 255 0 0
4.25903 2.33357 -1.07703 255 0 0
4.12862 2.3062 -0.897525 255 0 0
4.12862 2.27505 -0.71802 255 0 0
4.30812 2.33357 -1.02509 255 0 0
4.30812 2.22284 -0.897525 255 0 0
4.30812 2.15406 -0.842993 255 0 0
4.30812 2.3672 -0.897525 255 0 0
4.30812 2.51307 -0.855523 255 0 0
4.30812 2.33357 -0.84532 255 0 0
4.18577 2.51307 -0.71802 255 0 0
4.30812 2.69258 -0.767007 255 0 0
4.30812 2.6806 -0.71802 255 0 0
4.30812 2.69258 -0.794612 255 0 0
3.92438 2.33357 -0.35901 255 0 0
3.94911 2.33357 -0.386658 255 0 0
3.94911 2.26502 -0.538515 255 0 0
3.76961 2.32874 -0.179505 255 0 0
3.76961 2.33357 -0.163896 255 0 0
3.94911 2.42822 -0.179505 255 0 0
3.94911 2.3499 -0.35901 255 0 0
3.94911 2.47117 0 255 0 0
3.76961 2.38269 0 255 0 0
4.12862 2.30949 -0.538515 255 0 0
4.12862 2.51307 -0.608169 255 0 0
4.10354 2.51307 -0.538515 255 0 0
4.0693 2.51307 -0.35901 255 0 0
4.12862 2.33357 -0.530075 255 0 0
4.12862 2.33833 -0.538515 255 0 0
4.30812 2.18341 -0.538515 255 0 0
4.30812 2.27838 -0.538515 255 0 0
4.30812 2.40859 -0.71802 255 0 0
4.30812 2.33357 -0.583273 255 0 0
4.0196 2.51307 -0.179505 255 0 0
4.01028 2.51307 0 255 0 0
4.12862 2.5642 -0.538515 255 0 0
4.12862 2.57236 -0.35901 255 0 0
4.30812 2.62237 -0.538515 255 0 0
4.12862 2.57926 -0.179505 255 0 0
4.12862 2.58718 0 255 0 0
4.30812 2.57371 -0.35901 255 0 0
4.30812 2.58662 -0.179505 255 0 0
4.30812 2.59017 0 255 0 0
4.48763 0.716784 -0.179505 255 0 0
4.48763 0.71802 -0.158409 255 0 0
4.44993 0.71802 0 255 0 0
4.30812 0.686686 0 255 0 0
4.48763 0.80812 -0.35901 255 0 0
4.48763 0.897525 -0.433333 255 0 0
4.48763 0.989639 -0.538515 255 0 0
4.66713 1.00369 -0.538515 255 0 0
4.66713 1.07703 -0.58511 255 0 0
4.48763 1.07703 -0.605369 255 0 0
4.48763 1.25654 -0.643129 255 0 0
4.66713 1.25654 -0.613738 255 0 0
4.66713 1.43604 -0.593739 255 0 0
4.48763 1.43604 -0.644498 255 0 0
4.84664 0.862229 -0.35901 255 0 0
4.84664 0.897525 -0.389361 255 0 0
4.82248 1.07703 -0.538515 255 0 0
5.02614 0.922782 -0.35901 255 0 0
5.02614 1.07703 -0.458689 255 0 0
4.84664 0.774654 -0.179505 255 0 0
5.02614 0.809299 -0.179505 255 0 0
5.02614 0.897525 -0.331907 255 0 0
5.02614 0.827847 0 255 0 0
4.84664 1.25654 -0.546317 255 0 0
5.02614 1.25654 -0.475539 255 0 0
5.20565 0.897525 -0.273869 255 0 0
5.20565 0.841884 -0.179505 255 0 0
5.38515 0.897525 -0.2274 255 0 0
5.38515 0.870276 -0.179505 255 0 0
5.20565 0.855472 0 255 0 0
5.38515 1.07703 -0.350384 255 0 0
5.34848 1.07703 -0.35901 255 0 0
5.20565 1.25654 -0.395769 255 0 0
5.20565 1.43604 -0.382336 255 0 0
5.2473 1.43604 -0.35901 255 0 0
5.38515 1.25654 -0.336262 255 0 0
5.38515 1.43604 -0.298668 255 0 0
5.56466 1.01827 -0.35901 255 0 0
5.56466 0.865393 -0.179505 255 0 0
5.38515 0.85452 0 255 0 0
5.56466 0.897525 -0.221902 255 0 0
5.4696 1.07703 -0.35901 255 0 0
5.56466 0.83788 0 255 0 0
5.73518 0.897525 -0.179505 255 0 0
5.74416 0.897525 -0.169475 255 0 0
5.70888 1.07703 -0.35901 255 0 0
5.56466 1.15026 -0.35901 255 0 0
5.56466 1.25654 -0.317424 255 0 0
5.74416 1.25654 -0.318354 255 0 0
5.56466 1.43604 -0.243142 255 0 0
5.74416 1.43604 -0.196552 255 0 0
4.48763 1.61555 -0.607938 255 0 0
4.48763 1.79505 -0.583689 255 0 0
4.66713 1.61555 -0.581943 255 0 0
4.66713 1.79505 -0.58023 255 0 0
4.48763 1.97456 -0.575051 255 0 0
4.48763 2.10926 -0.538515 255 0 0
4.66713 1.97456 -0.599527 255 0 0
4.58831 2.15406 -0.538515 255 0 0
4.66713 2.15406 -0.554849 255 0 0
4.84664 1.61555 -0.568574 255 0 0
4.92033 1.61555 -0.538515 255 0 0
5.02614 1.61555 -0.481427 255 0 0
4.97118 1.79505 -0.538515 255 0 0
4.84664 1.79505 -0.601041 255 0 0
5.02614 1.79505 -0.45769 255 0 0
4.84664 1.97456 -0.624185 255 0 0
4.84664 2.15406 -0.55362 255 0 0
4.97531 1.97456 -0.538515 255 0 0
4.88195 2.15406 -0.538515 255 0 0
5.02614 1.97456 -0.47669 255 0 0
4.98635 2.15406 -0.35901 255 0 0
5.02614 2.10568 -0.35901 255 0 0
4.95416 2.15406 -0.179505 255 0 0
5.02614 2.08483 -0.179505 255 0 0
4.45483 2.51307 -0.897525 255 0 0
4.47764 2.51307 -0.897525 255 0 0
4.48763 2.51307 -0.891747 255 0 0
4.48012 2.51307 -0.71802 255 0 0
4.48763 2.51307 -0.728008 255 0 0
4.48763 2.69258 -0.95693 255 0 0
4.39476 2.69258 -0.897525 255 0 0
4.48763 2.69258 -0.764122 255 0 0
4.48763 2.72483 -0.897525 255 0 0
4.66713 2.69258 -0.80517 255 0 0
4.48763 2.62776 -0.71802 255 0 0
4.66713 2.69258 -0.978361 255 0 0
4.66713 2.75034 -0.897525 255 0 0
4.84664 2.60387 -0.897525 255 0 0
4.84664 2.69258 -0.790131 255 0 0
4.84664 2.69258 -0.93569 255 0 0
4.84664 2.75365 -0.897525 255 0 0
4.90409 2.69258 -0.897525 255 0 0
4.48763 2.33357 -0.418341 255 0 0
4.42774 2.51307 -0.538515 255 0 0
4.66713 2.31822 -0.35901 255 0 0
4.39711 2.51307 -0.35901 255 0 0
4.4553 2.51307 -0.179505 255 0 0
4.48763 2.48406 -0.179505 255 0 0
4.66713 2.35041 -0.179505 255 0 0
4.66713 2.36166 0 255 0 0
4.48763 2.49839 0 255 0 0
4.84664 2.24885 -0.35901 255 0 0
4.84664 2.23886 -0.179505 255 0 0
4.84664 2.21762 0 255 0 0
4.9214 2.15406 0 255 0 0
5.10231 1.79505 -0.35901 255 0 0
5.15986 1.61555 -0.35901 255 0 0
5.20565 1.79505 -0.219192 255 0 0
5.38515 1.61555 -0.20378 255 0 0
5.38515 1.64891 -0.179505 255 0 0
5.08887 1.97456 -0.35901 255 0 0
5.1199 1.97456 -0.179505 255 0 0
5.20565 1.83623 -0.179505 255 0 0
5.12376 1.97456 0 255 0 0
5.25047 1.79505 -0.179505 255 0 0
5.34562 1.79505 0 255 0 0
5.20565 1.90934 0 255 0 0
5.56466 1.59536 0 255 0 0
5.74416 1.48252 0 255 0 0
0.71802 0.179505 1.27741 255 0 0
0.538515 0.179505 1.3111 255 0 0
0.538515 0.35901 1.25227 255 0 0
0.71802 0.35901 1.22544 255 0 0
0.35901 1.25654 0.665974 255 0 0
0.35901 1.38574 0.538515 255 0 0
0.35901 0.787085 1.07703 255 0 0
0.35901 1.07703 0.84639 255 0 0
1.07703 0.179505 1.23206 255 0 0
1.07703 0.35901 1.19057 255 0 0
1.07703 0.538515 1.12396 255 0 0
0.71802 1.25654 0.654212 255 0 0
0.897525 1.21166 0.71802 255 0 0
0.897525 1.25654 0.684011 255 0 0
0.897525 0.949059 0.897525 255 0 0
0.35901 1.61555 0.261315 255 0 0
0.35901 1.54723 0.35901 255 0 0
0.35901 1.66939 0.179505 255 0 0
0.35901 1.7328 0 255 0 0
0.897525 1.5694 0.35901 255 0 0
0.897525 1.61555 0.295304 255 0 0
1.79505 0.179505 1.23828 255 0 0
1.79505 0.35901 1.2063 255 0 0
1.61555 0.538515 1.13726 255 0 0
1.79505 0.538515 1.13921 255 0 0
2.15406 0.538515 1.10737 255 0 0
1.61555 0.897525 1.00598 255 0 0
1.61555 1.07703 0.901151 255 0 0
1.61555 1.35656 0.71802 255 0 0
2.15406 0.71802 1.02429 255 0 0
2.15406 0.897525 0.921025 255 0 0
1.97456 0.897525 0.981431 255 0 0
1.97456 1.25654 0.756184 255 0 0
2.79079 0.179505 0.71802 255 0 0
2.71599 0.538515 0.71802 255 0 0
2.7605 0.35901 0.71802 255 0 0
2.87208 0.538515 0.613481 255 0 0
2.87208 0.35901 0.649593 255 0 0
2.69258 0.71802 0.680365 255 0 0
2.50414 0.35901 1.07703 255 0 0
2.51307 0.34557 1.07703 255 0 0
2.51307 0.538515 0.985315 255 0 0
2.69258 0.179505 0.962836 255 0 0
2.68869 0.35901 0.897525 255 0 0
2.69258 0.348256 0.897525 255 0 0
2.6131 0.538515 0.897525 255 0 0
2.66065 0.71802 0.71802 255 0 0
2.51307 0.940755 0.71802 255 0 0
2.39035 1.07703 0.71802 255 0 0
2.33357 1.25654 0.629789 255 0 0
2.33357 1.38959 0.538515 255 0 0
2.21471 1.43604 0.538515 255 0 0
2.15406 1.43604 0.55657 255 0 0
2.51307 1.25654 0.541127 255 0 0
2.51307 1.07703 0.622126 255 0 0
2.69258 1.07703 0.545546 255 0 0
2.54098 0.897525 0.71802 255 0 0
2.69258 1.25654 0.484772 255 0 0
2.87208 1.25654 0.448201 255 0 0
2.87208 1.07703 0.495454 255 0 0
2.69258 1.43604 0.41164 255 0 0
2.87208 1.43604 0.393587 255 0 0
1.61555 1.75458 0.179505 255 0 0
1.43604 1.75169 0.179505 255 0 0
1.61555 1.51865 0.538515 255 0 0
1.61555 1.64739 0.35901 255 0 0
1.97456 1.74277 0.179505 255 0 0
1.79505 1.78769 0 255 0 0
1.97456 1.78004 0 255 0 0
1.97456 1.65304 0.35901 255 0 0
2.15406 1.6389 0.35901 255 0 0
2.15406 1.75745 0.179505 255 0 0
1.97456 1.49468 0.538515 255 0 0
2.51307 1.61555 0.35081 255 0 0
2.50276 1.79505 0.179505 255 0 0
2.51307 1.79505 0.182805 255 0 0
2.69258 1.5596 0.35901 255 0 0
2.69258 1.61555 0.334659 255 0 0
2.87208 1.61555 0.334819 255 0 0
2.87208 1.53115 0.35901 255 0 0
2.87208 1.79505 0.233686 255 0 0
3.05159 0.179505 0.579793 255 0 0
3.05159 0.35901 0.578862 255 0 0
3.14003 0.179505 0.538515 255 0 0
3.1478 0.35901 0.538515 255 0 0
3.08171 0.538515 0.538515 255 0 0
3.05159 0.538515 0.545352 255 0 0
3.4106 0.119721 0.35901 255 0 0
3.4106 0.35901 0.44637 255 0 0
3.4106 0.538515 0.465949 255 0 0
3.5901 0.71802 0.451523 255 0 0
3.23109 1.07703 0.480333 255 0 0
3.23109 1.25654 0.457367 255 0 0
3.5901 1.07703 0.494397 255 0 0
3.4106 1.43604 0.432983 255 0 0
3.5901 1.43604 0.469546 255 0 0
3.76961 0.219217 0.179505 255 0 0
3.76961 0.229631 0 255 0 0
3.76961 0.35901 0.254285 255 0 0
3.94911 0.538515 0.267556 255 0 0
3.77098 0.538515 0.35901 255 0 0
3.94911 0.675294 0.35901 255 0 0
4.04514 0.538515 0.179505 255 0 0
4.12862 0.71802 0.32784 255 0 0
4.12862 0.629912 0.179505 255 0 0
3.94911 0.897525 0.457863 255 0 0
3.76961 1.25654 0.515187 255 0 0
4.12862 0.897525 0.443078 255 0 0
4.30812 0.806502 0.35901 255 0 0
4.30812 0.897525 0.436024 255 0 0
4.23218 1.07703 0.538515 255 0 0
4.12862 1.07703 0.510589 255 0 0
4.12862 1.25654 0.552105 255 0 0
4.12862 1.43604 0.579532 255 0 0
4.07025 1.43604 0.538515 255 0 0
4.30812 1.07703 0.561003 255 0 0
4.30812 1.25654 0.640171 255 0 0
4.30812 1.43604 0.657712 255 0 0
3.23109 1.79505 0.311576 255 0 0
3.23109 1.64213 0.35901 255 0 0
3.17711 1.61555 0.35901 255 0 0
3.05159 1.97456 0.0675364 255 0 0
2.96005 1.97456 0 255 0 0
2.87208 1.9464 0 255 0 0
3.4106 1.79505 0.354521 255 0 0
3.4106 1.75813 0.35901 255 0 0
3.4106 1.97456 0.281061 255 0 0
3.4106 2.07838 0.179505 255 0 0
3.23109 2.06768 0 255 0 0
3.42096 2.15406 0 255 0 0
3.4106 2.14924 0 255 0 0
3.58998 1.97456 0.35901 255 0 0
3.5901 1.97468 0.35901 255 0 0
3.5901 2.15406 0.235967 255 0 0
3.53177 2.15406 0.179505 255 0 0
3.5901 1.79505 0.403172 255 0 0
3.76961 1.61555 0.467488 255 0 0
3.94911 1.61555 0.507851 255 0 0
3.94911 1.79505 0.476621 255 0 0
3.94911 1.97456 0.526477 255 0 0
3.86986 2.15406 0.538515 255 0 0
3.94911 2.15406 0.681112 255 0 0
4.07498 1.61555 0.538515 255 0 0
4.08076 1.79505 0.538515 255 0 0
4.30812 1.61555 0.641678 255 0 0
4.03328 1.97456 0.71802 255 0 0
4.12862 1.91988 0.71802 255 0 0
4.27646 1.97456 0.538515 255 0 0
4.30812 1.79505 0.610537 255 0 0
4.27997 1.97456 0.538515 255 0 0
4.30812 2.0707 0.538515 255 0 0
4.30812 2.0615 0.538515 255 0 0
4.30812 2.15406 0.562894 255 0 0
4.30812 2.15406 0.696066 255 0 0
4.02919 1.97456 0.897525 255 0 0
4.12862 1.84864 0.897525 255 0 0
