ply
format ascii 1.0
comment VCGLIB generated
element vertex 1399
property float x
property float y
property float z
property uchar red
property uchar green
property uchar blue
end_header
-36.1044 -95.3125 28.5938 255 255 0
-28.5938 -100.384 28.5938 0 255 255
-35.5705 -95.3125 38.125 255 255 0
-28.5938 -100.213 38.125 0 255 255
-22.0046 -104.844 28.5938 255 255 0
-19.0625 -106.218 28.5938 0 255 255
-21.5473 -104.844 38.125 255 255 0
-19.0625 -106.304 38.125 0 255 255
-9.53125 -109.561 28.5938 0 255 255
-9.53125 -109.84 38.125 0 255 255
0 -111.459 28.5938 0 255 255
0 -112.384 38.125 0 255 255
-34.567 -95.3125 47.6562 255 255 0
-28.5938 -100.102 47.6562 0 255 255
-33.6982 -95.3125 57.1875 255 255 0
-28.5938 -99.9916 57.1875 0 255 255
-21.09 -104.844 47.6562 255 255 0
-19.0625 -106.035 47.6562 0 255 255
-20.6327 -104.844 57.1875 255 255 0
-19.0625 -105.862 57.1875 0 255 255
-33.0876 -95.3125 66.7188 255 255 0
-28.5938 -100.06 66.7188 0 255 255
-33.9101 -95.3125 76.25 255 255 0
-28.5938 -101.023 76.25 0 255 255
-23.1003 -104.844 66.7188 255 255 0
-19.0625 -107.823 66.7188 0 255 255
-25.0805 -104.844 76.25 255 255 0
-9.53125 -109.93 47.6562 0 255 255
-9.53125 -112.407 57.1875 0 255 255
-38.4352 -142.969 114.375 255 255 0
-38.125 -143.45 114.375 0 255 255
-38.125 -142.969 112.954 255 0 0
-39.9957 -133.438 104.844 255 255 0
-38.125 -138.046 104.844 0 255 255
-38.125 -133.438 99.061 255 0 0
-42.5054 -133.438 114.375 255 255 0
-38.125 -118.967 95.3125 0 255 255
-38.125 -117.858 95.3125 0 255 255
-42.5636 -123.906 104.844 255 255 0
-38.125 -123.906 95.9005 255 0 0
-45.4254 -123.906 114.375 255 255 0
-42.8612 -114.375 104.844 255 255 0
-38.125 -114.375 96.6225 255 0 0
-46.4918 -114.375 114.375 255 255 0
-40.5487 -142.969 123.906 255 255 0
-38.125 -146.81 123.906 0 255 255
-43.3358 -142.969 133.438 255 255 0
-38.125 -151.289 133.438 0 255 255
-44.7573 -133.438 123.906 255 255 0
-47.1519 -133.438 133.438 255 255 0
-48.0819 -142.969 152.5 255 255 0
-47.6562 -143.848 152.5 0 255 255
-47.6562 -142.969 150.018 255 0 0
-49.5818 -133.438 142.969 255 255 0
-47.6562 -139.659 142.969 0 255 255
-47.6562 -133.438 135.416 255 0 0
-51.3955 -133.438 152.5 255 255 0
-45.8195 -142.969 142.969 255 255 0
-47.7019 -123.906 123.906 255 255 0
-47.6562 -124.054 123.906 0 255 255
-47.6562 -123.906 123.713 255 0 0
-50.0442 -123.906 133.438 255 255 0
-47.6562 -131.776 133.438 0 255 255
-49.2233 -114.375 123.906 255 255 0
-47.6562 -114.375 118.253 255 0 0
-51.8826 -114.375 133.438 255 255 0
-51.9829 -123.906 142.969 255 255 0
-53.8278 -123.906 152.5 255 255 0
-53.6652 -114.375 142.969 255 255 0
-55.2542 -114.375 152.5 255 255 0
-40.7809 -104.844 104.844 255 255 0
-38.125 -104.844 100.651 255 0 0
-46.2985 -104.844 114.375 255 255 0
-40.1306 -95.3125 104.844 255 255 0
-38.125 -95.3125 100.143 255 0 0
-44.4635 -95.3125 114.375 255 255 0
-40.8192 -85.7812 85.7812 255 255 0
-38.125 -89.8975 85.7812 0 255 255
-41.144 -85.7812 95.3125 255 255 0
-38.125 -92.2317 95.3125 0 255 255
-44.6215 -76.25 85.7812 255 255 0
-44.2496 -76.25 95.3125 255 255 0
-42.0048 -85.7812 104.844 255 255 0
-44.04 -85.7812 114.375 255 255 0
-45.2395 -76.25 104.844 255 255 0
-45.2283 -76.25 114.375 255 255 0
-59.1245 -95.3125 142.969 255 255 0
-57.1875 -97.404 142.969 0 255 255
-57.1875 -95.3125 141.168 255 0 0
-59.9118 -95.3125 152.5 255 255 0
-57.1875 -101.031 152.5 0 255 255
-62.4884 -85.7812 142.969 255 255 0
-57.1875 -85.7812 142.044 255 0 0
-64.2852 -85.7812 152.5 255 255 0
-57.1875 -84.4442 142.969 0 255 255
-66.6157 -76.25 152.5 255 255 0
-57.1875 -76.25 148.804 255 0 0
-49.4475 -104.844 123.906 255 255 0
-47.6562 -104.844 118.03 255 0 0
-51.8866 -104.844 133.438 255 255 0
-48.2864 -95.3125 123.906 255 255 0
-47.6562 -95.3125 122.21 255 0 0
-51.8272 -95.3125 133.438 255 255 0
-55.1677 -104.844 142.969 255 255 0
-56.4673 -104.844 152.5 255 255 0
-47.6562 -91.4451 123.906 0 255 255
-49.3731 -85.7812 133.438 255 255 0
-47.6562 -85.7812 128.065 255 0 0
-47.6562 -79.8235 133.438 0 255 255
-46.3274 -85.7812 123.906 255 255 0
-45.9751 -76.25 123.906 255 255 0
-47.5119 -76.25 133.438 255 255 0
-53.3478 -85.7812 142.969 255 255 0
-53.9269 -85.7812 142.969 255 255 0
-49.7279 -76.25 142.969 255 255 0
-47.6562 -76.25 134.333 255 0 0
-32.3349 -142.969 95.3125 255 255 0
-28.5938 -150.811 95.3125 0 255 255
-28.5938 -142.969 87.3449 255 0 0
-29.6206 -133.438 85.7812 255 255 0
-28.5938 -141.025 85.7812 0 255 255
-28.5938 -133.438 85.0804 255 0 0
-36.3705 -133.438 95.3125 255 255 0
-27.8485 -142.969 85.7812 255 255 0
-19.0625 -142.969 79.0701 255 0 0
-19.0625 -133.438 78.647 255 0 0
-36.127 -142.969 104.844 255 255 0
-29.1052 -123.906 85.7812 255 255 0
-28.5938 -123.906 85.4128 255 0 0
-37.7176 -123.906 95.3125 255 255 0
-28.5938 -121.331 85.7812 0 255 255
-36.9991 -114.375 95.3125 255 255 0
-28.5938 -114.375 86.7766 255 0 0
-19.0625 -123.906 78.5376 255 0 0
-27.8563 -114.375 85.7812 255 255 0
-29.7095 -104.844 85.7812 255 255 0
-28.5938 -112.406 85.7812 0 255 255
-28.5938 -104.844 83.8729 255 0 0
-34.9165 -104.844 95.3125 255 255 0
-34.8488 -95.3125 85.7812 255 255 0
-36.5351 -95.3125 95.3125 255 255 0
-69.6536 -57.1875 28.5938 255 255 0
-66.7188 -61.6622 28.5938 0 255 255
-66.7188 -57.1875 32.4348 255 0 0
-63.3118 -66.7188 28.5938 255 255 0
-57.1875 -75.3131 28.5938 0 255 255
-57.384 -66.7188 38.125 255 255 0
-57.1875 -67.0819 38.125 0 255 255
-62.5108 -57.1875 38.125 255 255 0
-73.3389 -47.6562 28.5938 255 255 0
-66.7188 -47.6562 36.633 255 0 0
-75.4139 -38.125 28.5938 255 255 0
-67.3983 -38.125 38.125 255 255 0
-66.7188 -43.6609 38.125 0 255 255
-65.4907 -47.6562 38.125 255 255 0
-57.1875 -66.7188 38.5021 255 0 0
-57.1875 -57.1875 46.7743 255 0 0
-66.7188 -38.125 38.969 255 0 0
-58.5021 -47.6562 47.6562 255 255 0
-57.1875 -54.7987 47.6562 0 255 255
-57.1875 -47.6562 49.7623 255 0 0
-60.0105 -38.125 47.6562 255 255 0
-57.1875 -38.125 51.5494 255 0 0
-52.8223 -66.7188 47.6562 255 255 0
-50.0678 -66.7188 57.1875 255 255 0
-47.6562 -72.4138 57.1875 0 255 255
-56.6447 -57.1875 47.6562 255 255 0
-52.5601 -57.1875 57.1875 255 255 0
-48.489 -66.7188 66.7188 255 255 0
-47.6562 -70.3276 66.7188 0 255 255
-47.6562 -66.7188 71.6301 255 0 0
-50.2806 -57.1875 66.7188 255 255 0
-48.403 -57.1875 76.25 255 255 0
-47.6562 -64.2475 76.25 0 255 255
-47.1389 -66.7188 76.25 255 255 0
-54.4414 -47.6562 57.1875 255 255 0
-54.8089 -38.125 57.1875 255 255 0
-50.9897 -47.6562 66.7188 255 255 0
-48.8199 -47.6562 76.25 255 255 0
-50.6077 -38.125 66.7188 255 255 0
-47.9606 -38.125 76.25 255 255 0
-74.6436 -28.5938 28.5938 255 255 0
-67.06 -28.5938 38.125 255 255 0
-71.8155 -19.0625 28.5938 255 255 0
-66.7188 -26.2785 38.125 0 255 255
-66.7188 -19.0625 35.2384 255 0 0
-64.0067 -19.0625 38.125 255 255 0
-66.7188 -9.9385 28.5938 0 255 255
-66.7188 -9.53125 28.1409 255 0 0
-66.3272 -9.53125 28.5938 255 255 0
-58.0874 -9.53125 38.125 255 255 0
-57.1875 -0.307975 28.5938 0 255 255
-57.1875 -8.59514 38.125 0 255 255
-56.8606 0 28.5938 255 255 0
-48.9086 0 38.125 255 255 0
-66.7188 -28.5938 38.5329 255 0 0
-59.2887 -28.5938 47.6562 255 255 0
-57.1875 -28.5938 50.7569 255 0 0
-57.1875 -22.098 47.6562 0 255 255
-57.1875 -19.0625 45.8469 255 0 0
-57.1875 -9.53125 39.166 255 0 0
-52.8296 -28.5938 57.1875 255 255 0
-55.7796 -19.0625 47.6562 255 255 0
-48.9588 -19.0625 57.1875 255 255 0
-48.5342 -28.5938 66.7188 255 255 0
-47.6562 -35.8286 76.25 0 255 255
-47.6562 -28.5938 68.6416 255 0 0
-47.6562 -25.5165 66.7188 0 255 255
-47.6562 -19.0625 59.1103 255 0 0
-45.0505 -28.5938 76.25 255 255 0
-44.4463 -19.0625 66.7188 255 255 0
-40.5306 -19.0625 76.25 255 255 0
-50.6642 -9.53125 47.6562 255 255 0
-47.6562 -16.7573 57.1875 0 255 255
-47.6562 -9.53125 51.7649 255 0 0
-47.6562 -6.42619 47.6562 0 255 255
-47.6562 0 39.5001 255 0 0
-43.6863 -9.53125 57.1875 255 255 0
-39.9354 0 47.6562 255 255 0
-38.125 -5.05693 57.1875 0 255 255
-38.125 0 49.5518 255 0 0
-38.125 -9.69701 66.7188 0 255 255
-38.125 -9.53125 66.273 255 0 0
-38.125 -15.9439 76.25 0 255 255
-31.7504 0 57.1875 255 255 0
-37.892 -9.53125 66.7188 255 255 0
-32.9093 -9.53125 76.25 255 255 0
-28.5938 -2.91715 66.7188 0 255 255
-28.5938 0 61.2831 255 0 0
-28.5938 -6.4615 76.25 0 255 255
-24.4928 0 66.7188 255 255 0
-19.0625 -1.29315 76.25 0 255 255
-19.0625 0 73.052 255 0 0
-15.9516 0 76.25 255 255 0
-47.6562 -57.1875 85.5449 255 0 0
-46.9515 -66.7188 85.7812 255 255 0
-46.198 -66.7188 95.3125 255 255 0
-47.6373 -57.1875 85.7812 255 255 0
-46.795 -57.1875 95.3125 255 255 0
-45.9529 -66.7188 104.844 255 255 0
-45.9025 -66.7188 114.375 255 255 0
-46.382 -57.1875 104.844 255 255 0
-45.728 -57.1875 114.375 255 255 0
-47.6562 -49.8108 85.7812 0 255 255
-47.6562 -55.2905 85.7812 0 255 255
-47.6562 -47.6562 84.1647 255 0 0
-47.6562 -38.125 77.3117 255 0 0
-47.4035 -47.6562 85.7812 255 255 0
-45.9134 -47.6562 95.3125 255 255 0
-45.2855 -38.125 85.7812 255 255 0
-44.0708 -38.125 95.3125 255 255 0
-45.0315 -47.6562 104.844 255 255 0
-44.5705 -47.6562 114.375 255 255 0
-42.6609 -38.125 104.844 255 255 0
-41.4688 -38.125 114.375 255 255 0
-57.1875 -73.2621 152.5 0 255 255
-46.3895 -66.7188 123.906 255 255 0
-46.9253 -66.7188 133.438 255 255 0
-45.3453 -57.1875 123.906 255 255 0
-46.0488 -57.1875 133.438 255 255 0
-47.8126 -66.7188 142.969 255 255 0
-47.6562 -66.7188 142.365 255 0 0
-50.3627 -66.7188 152.5 255 255 0
-47.6562 -65.7939 142.969 0 255 255
-48.8765 -57.1875 152.5 255 255 0
-47.6562 -57.1875 148.544 255 0 0
-46.6487 -57.1875 142.969 255 255 0
-44.1684 -47.6562 123.906 255 255 0
-44.4125 -47.6562 133.438 255 255 0
-40.6958 -38.125 123.906 255 255 0
-40.9173 -38.125 133.438 255 255 0
-47.6562 -52.0491 152.5 0 255 255
-44.6064 -47.6562 142.969 255 255 0
-46.3434 -47.6562 152.5 255 255 0
-41.2195 -38.125 142.969 255 255 0
-43.2102 -38.125 152.5 255 255 0
-42.8134 -28.5938 85.7812 255 255 0
-40.2651 -28.5938 95.3125 255 255 0
-38.125 -19.8393 85.7812 0 255 255
-38.125 -19.0625 83.3491 255 0 0
-38.125 -25.174 95.3125 0 255 255
-38.8721 -28.5938 104.844 255 255 0
-38.125 -29.6259 114.375 0 255 255
-38.125 -28.5938 109.956 255 0 0
-38.125 -27.3999 104.844 0 255 255
-38.125 -31.1175 123.906 0 255 255
-38.125 -31.0544 133.438 0 255 255
-38.125 -31.0745 142.969 0 255 255
-38.2228 -28.5938 152.5 255 255 0
-38.125 -28.5938 152.043 255 0 0
-38.125 -28.4505 152.5 0 255 255
-37.4165 -19.0625 85.7812 255 255 0
-34.6399 -19.0625 95.3125 255 255 0
-37.4791 -28.5938 114.375 255 255 0
-32.224 -19.0625 104.844 255 255 0
-29.9258 -19.0625 114.375 255 255 0
-28.5938 -9.96428 85.7812 0 255 255
-28.5938 -9.53125 83.9816 255 0 0
-28.5938 -13.6149 95.3125 0 255 255
-27.7421 -9.53125 85.7812 255 255 0
-23.2316 -9.53125 95.3125 255 255 0
-19.0625 -5.11809 85.7812 0 255 255
-19.0625 -7.41146 95.3125 0 255 255
-28.5938 -16.2157 104.844 0 255 255
-28.5938 -17.7335 114.375 0 255 255
-19.0625 -9.83593 104.844 0 255 255
-19.0625 -9.53125 102.561 255 0 0
-19.0625 -11.1083 114.375 0 255 255
-9.53125 -1.61886 85.7812 0 255 255
-9.53125 0 80.7797 255 0 0
-9.53125 -4.04959 95.3125 0 255 255
-1.57978 0 85.7812 255 255 0
0 -2.00451 95.3125 0 255 255
0 0 87.1383 255 0 0
-18.1427 -9.53125 104.844 255 255 0
-14.3016 -9.53125 114.375 255 255 0
-9.53125 -6.67864 104.844 0 255 255
-9.53125 -7.98191 114.375 0 255 255
0 -4.5833 104.844 0 255 255
0 -5.83172 114.375 0 255 255
-36.2024 -28.5938 123.906 255 255 0
-36.1762 -28.5938 133.438 255 255 0
-28.9 -19.0625 123.906 255 255 0
-28.5938 -19.4952 133.438 0 255 255
-28.5938 -19.0625 128.051 255 0 0
-27.9073 -19.0625 133.438 255 255 0
-36.1853 -28.5938 142.969 255 255 0
-28.5938 -19.2829 142.969 0 255 255
-29.7911 -19.0625 152.5 255 255 0
-28.5938 -19.0625 144.841 255 0 0
-28.3047 -19.0625 142.969 255 255 0
-28.5938 -18.7295 123.906 0 255 255
-19.0625 -12.513 123.906 0 255 255
-19.0625 -12.488 133.438 0 255 255
-28.5938 -18.1607 152.5 0 255 255
-19.0625 -12.1857 142.969 0 255 255
-19.0625 -11.8833 152.5 0 255 255
-9.99998 -9.53125 123.906 255 255 0
-9.53125 -9.73988 133.438 0 255 255
-9.53125 -9.53125 124.888 255 0 0
-9.53125 -9.38655 123.906 0 255 255
-8.80766 -9.53125 133.438 255 255 0
0 -7.08014 123.906 0 255 255
0 -7.80803 133.438 0 255 255
-9.56666 -9.53125 142.969 255 255 0
-9.53125 -9.53125 142.037 255 0 0
-11.2681 -9.53125 152.5 255 255 0
-9.53125 -9.52223 142.969 0 255 255
-9.53125 -8.8515 152.5 0 255 255
0 -8.04582 142.969 0 255 255
0 -6.99699 152.5 0 255 255
-58.0924 -114.375 181.094 255 255 0
-57.1875 -119.173 181.094 0 255 255
-57.1875 -114.375 174.254 255 0 0
-57.8252 -114.375 190.625 255 255 0
-57.1875 -118.611 190.625 0 255 255
-49.4738 -142.969 162.031 255 255 0
-47.6562 -146.724 162.031 0 255 255
-50.5272 -142.969 171.562 255 255 0
-47.6562 -148.759 171.562 0 255 255
-52.395 -133.438 162.031 255 255 0
-53.0931 -133.438 171.562 255 255 0
-50.7897 -142.969 181.094 255 255 0
-47.6562 -149.21 181.094 0 255 255
-50.8569 -142.969 190.625 255 255 0
-47.6562 -150.034 190.625 0 255 255
-53.5788 -133.438 181.094 255 255 0
-53.6401 -133.438 190.625 255 255 0
-54.9124 -123.906 162.031 255 255 0
-55.6532 -123.906 171.562 255 255 0
-56.1642 -114.375 162.031 255 255 0
-56.9325 -114.375 171.562 255 255 0
-56.2996 -123.906 181.094 255 255 0
-56.3902 -123.906 190.625 255 255 0
-57.6269 -114.375 200.156 255 255 0
-57.1875 -117.294 200.156 0 255 255
-57.4287 -114.375 209.688 255 255 0
-57.1875 -115.977 209.688 0 255 255
-57.3173 -114.375 219.219 255 255 0
-57.1875 -115.243 219.219 0 255 255
-57.275 -114.375 228.75 255 255 0
-57.1875 -114.856 228.75 0 255 255
-50.8991 -142.969 200.156 255 255 0
-47.6562 -151.604 200.156 0 255 255
-50.8581 -142.969 209.688 255 255 0
-47.6562 -151.316 209.688 0 255 255
-53.6542 -133.438 200.156 255 255 0
-53.6675 -133.438 209.688 255 255 0
-50.7929 -142.969 219.219 255 255 0
-47.6562 -150.912 219.219 0 255 255
-50.5832 -142.969 228.75 255 255 0
-47.6562 -149.48 228.75 0 255 255
-53.5653 -133.438 219.219 255 255 0
-53.3314 -133.438 228.75 255 255 0
-56.192 -123.906 200.156 255 255 0
-55.9938 -123.906 209.688 255 255 0
-55.848 -123.906 219.219 255 255 0
-55.5425 -123.906 228.75 255 255 0
-57.4161 -104.844 162.031 255 255 0
-57.1875 -106.584 162.031 0 255 255
-57.1875 -104.844 159.225 255 0 0
-58.6291 -104.844 171.562 255 255 0
-57.1875 -112.487 171.562 0 255 255
-59.5257 -95.3125 162.031 255 255 0
-60.587 -95.3125 171.562 255 255 0
-59.6672 -104.844 181.094 255 255 0
-59.3841 -104.844 190.625 255 255 0
-61.6642 -95.3125 181.094 255 255 0
-60.9272 -95.3125 190.625 255 255 0
-69.0384 -76.25 162.031 255 255 0
-66.7188 -78.2132 162.031 0 255 255
-66.7188 -76.25 152.91 255 0 0
-70.7444 -76.25 171.562 255 255 0
-66.7188 -78.5498 171.562 0 255 255
-59.085 -85.7812 162.031 255 255 0
-60.7591 -85.7812 171.562 255 255 0
-68.5999 -85.7812 190.625 255 255 0
-66.7188 -87.467 190.625 0 255 255
-66.7188 -85.7812 183.591 255 0 0
-71.4861 -76.25 181.094 255 255 0
-66.7188 -80.7418 181.094 0 255 255
-72.7719 -76.25 190.625 255 255 0
-64.4183 -85.7812 181.094 255 255 0
-59.0619 -104.844 200.156 255 255 0
-58.8637 -104.844 209.688 255 255 0
-60.5916 -95.3125 200.156 255 255 0
-60.2986 -95.3125 209.688 255 255 0
-58.7433 -104.844 219.219 255 255 0
-58.7119 -104.844 228.75 255 255 0
-60.1693 -95.3125 219.219 255 255 0
-60.1379 -95.3125 228.75 255 255 0
-66.7188 -85.7812 192.132 255 0 0
-66.7188 -76.25 194.619 255 0 0
-61.8247 -85.7812 200.156 255 255 0
-61.7991 -85.7812 209.688 255 255 0
-62.463 -76.25 200.156 255 255 0
-62.2463 -76.25 209.688 255 255 0
-61.5953 -85.7812 219.219 255 255 0
-61.2335 -85.7812 228.75 255 255 0
-62.0571 -76.25 219.219 255 255 0
-62.1417 -76.25 228.75 255 255 0
-57.1875 -114.375 231.48 255 0 0
-49.4198 -142.969 238.281 255 255 0
-47.6562 -147.18 238.281 0 255 255
-48.204 -142.969 247.812 255 255 0
-47.6562 -144.638 247.812 0 255 255
-52.8453 -133.438 238.281 255 255 0
-50.9917 -133.438 247.812 255 255 0
-47.6562 -142.969 250.138 255 0 0
-48.6259 -133.438 257.344 255 255 0
-47.6562 -136.416 257.344 0 255 255
-47.6562 -133.438 260.618 255 0 0
-45.1774 -142.969 257.344 255 255 0
-39.7775 -142.969 266.875 255 255 0
-38.125 -145.367 266.875 0 255 255
-44.4697 -133.438 266.875 255 255 0
-55.237 -123.906 238.281 255 255 0
-53.582 -123.906 247.812 255 255 0
-56.9695 -114.375 238.281 255 255 0
-55.4513 -114.375 247.812 255 255 0
-51.6112 -123.906 257.344 255 255 0
-47.6562 -123.906 265.722 255 0 0
-53.5037 -114.375 257.344 255 255 0
-49.342 -114.375 266.875 255 255 0
-47.6562 -121.014 266.875 0 255 255
-46.9219 -123.906 266.875 255 255 0
-38.125 -142.969 268.825 255 0 0
-38.1356 -133.438 276.406 255 255 0
-38.125 -133.452 276.406 0 255 255
-38.125 -133.438 276.414 255 0 0
-47.6562 -114.375 269.522 255 0 0
-40.7416 -123.906 276.406 255 255 0
-38.125 -123.906 279.248 255 0 0
-43.1075 -114.375 276.406 255 255 0
-38.125 -114.375 281.818 255 0 0
-58.6805 -104.844 238.281 255 255 0
-57.1875 -113.176 238.281 0 255 255
-57.1875 -104.844 247.698 255 0 0
-59.8617 -95.3125 238.281 255 255 0
-58.4874 -95.3125 247.812 255 255 0
-57.1875 -104.683 247.812 0 255 255
-57.1875 -95.3125 254.468 255 0 0
-60.8465 -85.7812 238.281 255 255 0
-59.3613 -85.7812 247.812 255 255 0
-61.8314 -76.25 238.281 255 255 0
-59.6316 -76.25 247.812 255 255 0
-57.1875 -91.2045 257.344 0 255 255
-57.1875 -89.3162 257.344 0 255 255
-57.1875 -85.7812 256.994 255 0 0
-57.1875 -76.25 256.029 255 0 0
-57.1618 -104.844 247.812 255 255 0
-55.023 -104.844 257.344 255 255 0
-50.7304 -104.844 266.875 255 255 0
-56.5422 -95.3125 257.344 255 255 0
-51.8409 -95.3125 266.875 255 255 0
-57.0335 -85.7812 257.344 255 255 0
-52.3227 -85.7812 266.875 255 255 0
-56.6078 -76.25 257.344 255 255 0
-52.4051 -76.25 266.875 255 255 0
-47.6562 -104.844 273.081 255 0 0
-47.6562 -95.3125 274.357 255 0 0
-45.4735 -104.844 276.406 255 255 0
-38.125 -104.844 283.8 255 0 0
-45.9529 -95.3125 276.406 255 255 0
-38.125 -95.3125 284.848 255 0 0
-47.6562 -85.7812 274.335 255 0 0
-47.6562 -76.25 274.278 255 0 0
-45.9346 -85.7812 276.406 255 255 0
-38.125 -85.7812 285.803 255 0 0
-45.8699 -76.25 276.406 255 255 0
-38.125 -76.25 285.492 255 0 0
-30.7916 -142.969 276.406 255 255 0
-28.5938 -145.791 276.406 0 255 255
-28.5938 -142.969 278.207 255 0 0
-28.5938 -133.438 282.981 255 0 0
-19.0625 -142.969 284.09 255 0 0
-24.3028 -133.438 285.938 255 255 0
-19.0625 -139.609 285.938 0 255 255
-19.0625 -133.438 289.332 255 0 0
-29.4295 -123.906 285.938 255 255 0
-28.5938 -125.568 285.938 0 255 255
-34.222 -114.375 285.938 255 255 0
-28.5938 -123.906 286.525 255 0 0
-28.5938 -114.375 289.37 255 0 0
-19.0625 -123.906 292.134 255 0 0
-19.0625 -114.375 294.276 255 0 0
-14.3578 -142.969 285.938 255 255 0
-9.53125 -146.415 285.938 0 255 255
0 -150.971 285.938 0 255 255
-9.53125 -142.969 287.833 255 0 0
-9.53125 -133.438 292.118 255 0 0
0 -142.969 290.605 255 0 0
0 -133.438 294.708 255 0 0
-9.73709 -123.906 295.469 255 255 0
-9.53125 -124.065 295.469 0 255 255
-9.53125 -123.906 295.524 255 0 0
-16.0015 -114.375 295.469 255 255 0
-9.53125 -114.375 297.989 255 0 0
0 -131.425 295.469 0 255 255
0 -123.906 297.941 255 0 0
0 -114.375 300.163 255 0 0
-35.9556 -104.844 285.938 255 255 0
-37.0187 -95.3125 285.938 255 255 0
-28.5938 -104.844 291.179 255 0 0
-28.5938 -95.3125 291.925 255 0 0
-21.2034 -104.844 295.469 255 255 0
-19.0625 -109.07 295.469 0 255 255
-19.0625 -104.844 296.419 255 0 0
-22.7823 -95.3125 295.469 255 255 0
-19.0625 -95.3125 297.374 255 0 0
-38.0132 -85.7812 285.938 255 255 0
-37.6338 -76.25 285.938 255 255 0
-28.5938 -85.7812 292.338 255 0 0
-28.5938 -76.25 292.358 255 0 0
-23.21 -85.7812 295.469 255 255 0
-19.0625 -85.7812 297.804 255 0 0
-23.6215 -76.25 295.469 255 255 0
-19.0625 -76.25 298.13 255 0 0
-9.53125 -104.844 299.332 255 0 0
-9.53125 -95.3125 300.368 255 0 0
0 -104.844 301.397 255 0 0
0 -95.3125 302.63 255 0 0
-9.53125 -85.7812 300.864 255 0 0
-9.53125 -76.25 300.714 255 0 0
0 -85.7812 303.25 255 0 0
0 -76.25 302.716 255 0 0
-68.9223 -66.7188 162.031 255 255 0
-66.7188 -66.7188 157.122 255 0 0
-70.4569 -66.7188 171.562 255 255 0
-66.7188 -61.1025 162.031 0 255 255
-66.7188 -57.5743 171.562 0 255 255
-57.4419 -66.7188 162.031 255 255 0
-57.1875 -66.955 162.031 0 255 255
-57.1875 -66.7188 162.481 255 0 0
-57.1875 -61.1267 171.562 0 255 255
-72.0555 -66.7188 181.094 255 255 0
-72.6429 -66.7188 190.625 255 255 0
-66.7188 -58.607 181.094 0 255 255
-66.7188 -64.6634 190.625 0 255 255
-58.1397 -57.1875 181.094 255 255 0
-57.1875 -57.1875 178.85 255 0 0
-59.7754 -57.1875 190.625 255 255 0
-57.1875 -55.2046 181.094 0 255 255
-57.1875 -49.6392 190.625 0 255 255
-54.9478 -66.7188 162.031 255 255 0
-51.2551 -57.1875 162.031 255 255 0
-54.9856 -57.1875 171.562 255 255 0
-48.8357 -47.6562 162.031 255 255 0
-47.6562 -47.6562 157.32 255 0 0
-51.7119 -47.6562 171.562 255 255 0
-47.6562 -43.7534 162.031 0 255 255
-47.6562 -38.7493 171.562 0 255 255
-44.894 -38.125 162.031 255 255 0
-47.3149 -38.125 171.562 255 255 0
-54.4041 -47.6562 181.094 255 255 0
-56.5658 -47.6562 190.625 255 255 0
-50.4822 -38.125 181.094 255 255 0
-47.6562 -38.125 172.59 255 0 0
-53.5774 -38.125 190.625 255 255 0
-66.7188 -66.7188 191.804 255 0 0
-62.4429 -66.7188 200.156 255 255 0
-62.0403 -66.7188 209.688 255 255 0
-61.3362 -57.1875 200.156 255 255 0
-61.8343 -57.1875 209.688 255 255 0
-61.9784 -66.7188 219.219 255 255 0
-62.0631 -66.7188 228.75 255 255 0
-61.5561 -57.1875 219.219 255 255 0
-61.1102 -57.1875 228.75 255 255 0
-58.0323 -47.6562 200.156 255 255 0
-57.1875 -47.6562 194.666 255 0 0
-59.2887 -47.6562 209.688 255 255 0
-57.1875 -45.0782 200.156 0 255 255
-57.1875 -41.5001 209.688 0 255 255
-59.5395 -47.6562 219.219 255 255 0
-59.4854 -47.6562 228.75 255 255 0
-57.1875 -39.7435 219.219 0 255 255
-57.1875 -40.9981 228.75 0 255 255
-54.8142 -38.125 200.156 255 255 0
-56.0355 -38.125 209.688 255 255 0
-56.7064 -38.125 219.219 255 255 0
-56.0069 -38.125 228.75 255 255 0
-39.8002 -28.5938 162.031 255 255 0
-42.1027 -28.5938 171.562 255 255 0
-38.125 -25.4661 162.031 0 255 255
-38.125 -22.4106 171.562 0 255 255
-47.6562 -32.9574 181.094 0 255 255
-47.7566 -28.5938 190.625 255 255 0
-47.6562 -28.5938 190.275 255 0 0
-47.6562 -28.4325 190.625 0 255 255
-45.0272 -28.5938 181.094 255 255 0
-38.125 -19.6146 181.094 0 255 255
-40.3812 -19.0625 190.625 255 255 0
-38.125 -19.0625 182.976 255 0 0
-38.125 -16.8186 190.625 0 255 255
-50.0562 -28.5938 200.156 255 255 0
-51.5962 -28.5938 209.688 255 255 0
-47.6562 -24.163 200.156 0 255 255
-47.6562 -22.8436 209.688 0 255 255
-43.1927 -19.0625 200.156 255 255 0
-44.6692 -19.0625 209.688 255 255 0
-52.1496 -28.5938 219.219 255 255 0
-51.602 -28.5938 228.75 255 255 0
-47.6562 -21.9095 219.219 0 255 255
-47.6562 -22.3971 228.75 0 255 255
-45.7055 -19.0625 219.219 255 255 0
-45.095 -19.0625 228.75 255 255 0
-38.125 -14.0227 200.156 0 255 255
-38.125 -12.3916 209.688 0 255 255
-38.125 -11.9101 219.219 0 255 255
-38.125 -11.7541 228.75 0 255 255
-31.281 -19.0625 162.031 255 255 0
-34.3568 -19.0625 171.562 255 255 0
-37.5698 -19.0625 181.094 255 255 0
-28.5938 -17.021 162.031 0 255 255
-28.5938 -14.0984 171.562 0 255 255
-19.0625 -10.4989 162.031 0 255 255
-22.5364 -9.53125 171.562 255 255 0
-19.0625 -9.53125 165.51 255 0 0
-19.0625 -7.84794 171.562 0 255 255
-28.5938 -11.1758 181.094 0 255 255
-29.8051 -9.53125 190.625 255 255 0
-28.5938 -9.53125 187.448 255 0 0
-28.5938 -8.73503 190.625 0 255 255
-26.1707 -9.53125 181.094 255 255 0
-19.0625 -5.19702 181.094 0 255 255
-19.0625 -2.54611 190.625 0 255 255
-16.3474 -9.53125 162.031 255 255 0
-9.53125 -6.86354 162.031 0 255 255
-9.53125 -4.64748 171.562 0 255 255
0 -5.35421 162.031 0 255 255
0 -3.10792 171.562 0 255 255
-9.53125 -1.87067 181.094 0 255 255
-11.911 0 190.625 255 255 0
-9.53125 0 187.626 255 0 0
-0.157553 0 181.094 255 255 0
0 0 181.021 255 0 0
-33.4395 -9.53125 200.156 255 255 0
-34.7459 -9.53125 209.688 255 255 0
-28.5938 -6.39677 200.156 0 255 255
-28.5938 -5.06499 209.688 0 255 255
-19.0625 -0.638471 200.156 0 255 255
-20.3766 0 209.688 255 255 0
-19.0625 0 204.469 255 0 0
-35.2661 -9.53125 219.219 255 255 0
-35.7862 -9.53125 228.75 255 255 0
-28.5938 -4.53805 219.219 0 255 255
-28.5938 -4.13554 228.75 0 255 255
-22.152 0 219.219 255 255 0
-21.2735 0 228.75 255 255 0
-17.6079 0 200.156 255 255 0
-61.5261 -66.7188 238.281 255 255 0
-59.3185 -66.7188 247.812 255 255 0
-60.3293 -57.1875 238.281 255 255 0
-57.926 -57.1875 247.812 255 255 0
-57.1875 -66.7188 255.063 255 0 0
-57.1875 -57.1875 250.338 255 0 0
-58.6534 -47.6562 238.281 255 255 0
-57.1875 -53.4824 247.812 0 255 255
-57.1875 -47.6562 243.841 255 0 0
-57.1875 -44.0467 238.281 0 255 255
-56.1322 -66.7188 257.344 255 255 0
-51.2244 -66.7188 266.875 255 255 0
-54.4339 -57.1875 257.344 255 255 0
-49.7645 -57.1875 266.875 255 255 0
-56.0262 -47.6562 247.812 255 255 0
-54.7826 -38.125 238.281 255 255 0
-52.4853 -38.125 247.812 255 255 0
-52.2597 -47.6562 257.344 255 255 0
-47.6562 -48.2035 266.875 0 255 255
-47.6562 -47.6562 266.466 255 0 0
-48.414 -38.125 257.344 255 255 0
-47.6562 -38.125 258.858 255 0 0
-47.4148 -47.6562 266.875 255 255 0
-42.9781 -38.125 266.875 255 255 0
-47.6562 -66.7188 272.976 255 0 0
-47.6562 -57.1875 270.328 255 0 0
-45.5349 -66.7188 276.406 255 255 0
-38.125 -66.7188 284.392 255 0 0
-43.6043 -57.1875 276.406 255 255 0
-38.125 -57.1875 282.59 255 0 0
-40.6819 -47.6562 276.406 255 255 0
-38.125 -47.6562 279.527 255 0 0
-38.125 -42.1491 276.406 0 255 255
-38.125 -38.125 274.126 255 0 0
-50.5556 -28.5938 238.281 255 255 0
-47.6562 -28.6303 247.812 0 255 255
-47.6562 -28.5938 247.728 255 0 0
-47.6562 -24.5661 238.281 0 255 255
-47.6304 -28.5938 247.812 255 255 0
-43.413 -19.0625 238.281 255 255 0
-40.5567 -19.0625 247.812 255 255 0
-47.6562 -36.3121 257.344 0 255 255
-43.726 -28.5938 257.344 255 255 0
-38.125 -29.8601 266.875 0 255 255
-38.125 -28.5938 265.513 255 0 0
-38.125 -21.6973 257.344 0 255 255
-38.125 -19.0625 252.724 255 0 0
-38.125 -13.1465 238.281 0 255 255
-38.125 -16.3242 247.812 0 255 255
-36.4216 -66.7188 285.938 255 255 0
-34.5788 -57.1875 285.938 255 255 0
-28.5938 -66.7188 291.83 255 0 0
-28.5938 -57.1875 290.475 255 0 0
-22.4105 -66.7188 295.469 255 255 0
-19.0625 -66.7188 297.278 255 0 0
-19.9808 -57.1875 295.469 255 255 0
-19.0625 -57.1875 295.965 255 0 0
-30.437 -47.6562 285.938 255 255 0
-35.621 -38.125 276.406 255 255 0
-28.5938 -43.6522 285.938 0 255 255
-28.5938 -38.125 282.318 255 0 0
-22.7096 -38.125 285.938 255 255 0
-28.5938 -47.6562 287.336 255 0 0
-19.0625 -54.4533 295.469 0 255 255
-19.0625 -47.6562 292.604 255 0 0
-19.0625 -38.125 288.021 255 0 0
-9.53125 -66.7188 300.146 255 0 0
-9.53125 -57.1875 298.905 255 0 0
0 -66.7188 302.182 255 0 0
0 -57.1875 301.238 255 0 0
-10.3795 -47.6562 295.469 255 255 0
-9.53125 -47.6562 295.675 255 0 0
-9.53125 -47.0681 295.469 0 255 255
-9.53125 -38.125 292.139 255 0 0
0 -47.6562 297.695 255 0 0
0 -41.7471 295.469 0 255 255
0 -38.125 294.104 255 0 0
-37.191 -28.5938 266.875 255 255 0
-35.8379 -19.0625 257.344 255 255 0
-28.5938 -20.0347 266.875 0 255 255
-28.5938 -19.0625 265.782 255 0 0
-27.3297 -19.0625 266.875 255 255 0
-33.7163 -9.53125 238.281 255 255 0
-29.9988 -9.53125 247.812 255 255 0
-28.5938 -5.85699 238.281 0 255 255
-28.5938 -8.42378 247.812 0 255 255
-19.0625 -0.237752 238.281 0 255 255
-19.0625 0 237.541 255 0 0
-19.0625 -3.29763 247.812 0 255 255
-28.5938 -13.3347 257.344 0 255 255
-28.5938 -9.53125 250.28 255 0 0
-23.0539 -9.53125 257.344 255 255 0
-19.0625 -12.8292 266.875 0 255 255
-19.0625 -9.53125 261.469 255 0 0
-19.0625 -7.58699 257.344 0 255 255
-18.5487 0 238.281 255 255 0
-11.9367 0 247.812 255 255 0
-10.5209 -9.53125 266.875 255 255 0
-9.53125 -3.803 257.344 0 255 255
-9.53125 0 250.169 255 0 0
-9.53125 -9.18025 266.875 0 255 255
0 -1.52008 257.344 0 255 255
0 0 253.746 255 0 0
0 -5.83476 266.875 0 255 255
-28.5938 -29.157 276.406 0 255 255
-28.5938 -28.5938 275.935 255 0 0
-28.1359 -28.5938 276.406 255 255 0
-19.0625 -34.7998 285.938 0 255 255
-19.0625 -28.5938 281.52 255 0 0
-19.0625 -22.369 276.406 0 255 255
-19.0625 -19.0625 273.103 255 0 0
-9.53125 -28.704 285.938 0 255 255
-9.53125 -28.5938 285.865 255 0 0
-13.4872 -19.0625 276.406 255 255 0
-9.53125 -19.0625 278.729 255 0 0
-9.24314 -28.5938 285.938 255 255 0
0 -25.6158 285.938 0 255 255
0 -19.0625 281.035 255 0 0
0 -28.5938 288.116 255 0 0
-9.53125 -17.126 276.406 0 255 255
-9.53125 -9.53125 267.296 255 0 0
0 -14.7382 276.406 0 255 255
0 -9.53125 270.832 255 0 0
-47.6562 6.42748 28.5938 0 255 255
-47.6562 0.912926 38.125 0 255 255
-42.9429 9.53125 28.5938 255 255 0
-38.125 7.68797 38.125 0 255 255
-38.125 9.53125 35.2236 255 0 0
-38.125 12.2393 28.5938 0 255 255
-38.125 1.27408 47.6562 0 255 255
-34.8149 9.53125 38.125 255 255 0
-28.5938 16.8806 28.5938 0 255 255
-28.5938 12.4888 38.125 0 255 255
-23.2504 19.0625 28.5938 255 255 0
-19.0625 16.6182 38.125 0 255 255
-19.0625 19.0625 32.635 255 0 0
-19.0625 20.3162 28.5938 0 255 255
-9.53654 19.0625 38.125 255 255 0
-9.53125 22.4292 28.5938 0 255 255
-9.53125 19.0639 38.125 0 255 255
0 23.2162 28.5938 0 255 255
0 20.4428 38.125 0 255 255
-28.5938 7.312 47.6562 0 255 255
-28.5938 9.53125 43.5337 255 0 0
-28.5938 2.5042 57.1875 0 255 255
-23.7253 9.53125 47.6562 255 255 0
-19.0625 7.13628 57.1875 0 255 255
-19.0625 9.53125 52.1755 255 0 0
-19.0625 11.6695 47.6562 0 255 255
-19.0625 2.35203 66.7188 0 255 255
-12.2824 9.53125 57.1875 255 255 0
-9.53125 14.7299 47.6562 0 255 255
-9.53125 19.0625 38.128 255 0 0
-9.53125 10.354 57.1875 0 255 255
0 16.1237 47.6562 0 255 255
0 19.0625 41.5057 255 0 0
0 11.5696 57.1875 0 255 255
-9.53125 5.99088 66.7188 0 255 255
-9.53125 9.53125 58.9797 255 0 0
-9.53125 1.99287 76.25 0 255 255
0 7.58946 66.7188 0 255 255
0 9.53125 62.0305 255 0 0
0 3.53143 76.25 0 255 255
0 0.321633 85.7812 0 255 255
-9.53125 0.853419 190.625 0 255 255
0 0.0242963 181.094 0 255 255
0 2.83571 190.625 0 255 255
-19.0625 0.77045 209.688 0 255 255
-19.0625 1.9673 219.219 0 255 255
-19.0625 1.19531 228.75 0 255 255
-9.53125 3.13189 200.156 0 255 255
-9.53125 4.94284 209.688 0 255 255
0 5.13434 200.156 0 255 255
0 7.00012 209.688 0 255 255
-9.53125 4.96378 219.219 0 255 255
-9.53125 4.58487 228.75 0 255 255
0 7.53946 219.219 0 255 255
0 7.05247 228.75 0 255 255
-9.53125 2.99866 238.281 0 255 255
-9.53125 0.816871 247.812 0 255 255
0 4.96751 238.281 0 255 255
0 2.24716 247.812 0 255 255
9.53125 -177.788 76.25 0 255 255
9.53125 -171.562 73.015 255 0 0
19.0625 -177.541 76.25 0 255 255
19.0625 -171.562 72.9897 255 0 0
9.53125 -162.031 71.4964 255 0 0
9.53125 -152.5 71.3579 255 0 0
19.0625 -162.031 71.2299 255 0 0
19.0625 -152.5 71.2612 255 0 0
28.4842 -171.562 76.25 255 255 0
28.5938 -171.456 76.25 0 255 255
28.5938 -162.031 73.7116 255 0 0
28.5938 -152.5 72.7546 255 0 0
35.497 -162.031 76.25 255 255 0
37.144 -152.5 76.25 255 255 0
5.25607 -190.625 114.375 255 255 0
9.53125 -191.413 114.375 0 255 255
9.53125 -190.625 110.003 255 0 0
19.0625 -191.395 114.375 0 255 255
19.0625 -190.625 110.669 255 0 0
23.998 -190.625 114.375 255 255 0
2.77678 -190.625 123.906 255 255 0
9.53125 -194.189 123.906 0 255 255
9.53125 -190.625 118.844 255 0 0
9.53125 -190.625 118.858 255 0 0
3.23 -190.625 133.438 255 255 0
9.53125 -193.165 133.438 0 255 255
19.0625 -192.917 123.906 0 255 255
19.0625 -193.777 133.438 0 255 255
1.65359 -200.156 152.5 255 255 0
9.53125 -208.591 152.5 0 255 255
9.53125 -200.156 144.769 255 0 0
3.73361 -190.625 142.969 255 255 0
9.53125 -196.244 142.969 0 255 255
19.0625 -207.169 152.5 0 255 255
19.0625 -200.156 147.038 255 0 0
19.0625 -193.555 142.969 0 255 255
23.8268 -190.625 123.906 255 255 0
23.6035 -190.625 133.438 255 255 0
24.0901 -200.156 152.5 255 255 0
20.9832 -190.625 142.969 255 255 0
28.5938 -192.303 152.5 0 255 255
28.5938 -190.625 148.766 255 0 0
29.366 -190.625 152.5 255 255 0
1.80168 -181.094 85.7812 255 255 0
9.53125 -182.847 85.7812 0 255 255
9.53125 -181.094 81.8732 255 0 0
9.53125 -184.678 95.3125 0 255 255
19.0625 -182.403 85.7812 0 255 255
19.0625 -181.094 82.1526 255 0 0
19.0625 -184.389 95.3125 0 255 255
9.53125 -187.331 104.844 0 255 255
19.0625 -187.613 104.844 0 255 255
22.1717 -181.094 85.7812 255 255 0
26.8135 -181.094 95.3125 255 255 0
28.5938 -178.39 85.7812 0 255 255
28.5938 -171.562 76.3579 255 0 0
28.5938 -179.943 95.3125 0 255 255
35.9429 -171.562 85.7812 255 255 0
38.125 -171.595 95.3125 0 255 255
38.125 -171.562 95.1671 255 0 0
28.5938 -183.377 104.844 0 255 255
28.5938 -181.094 101.69 255 0 0
28.5938 -187.103 114.375 0 255 255
31.3516 -181.094 104.844 255 255 0
33.9603 -181.094 114.375 255 255 0
38.125 -173.608 104.844 0 255 255
38.125 -175.995 114.375 0 255 255
38.125 -169.274 85.7812 0 255 255
38.125 -162.031 78.7474 255 0 0
38.125 -152.5 76.7817 255 0 0
28.5938 -188.129 123.906 0 255 255
28.5938 -186.706 133.438 0 255 255
35.6328 -181.094 123.906 255 255 0
35.5072 -181.094 133.438 255 255 0
38.125 -178.514 123.906 0 255 255
38.125 -178.508 133.438 0 255 255
28.5938 -185.001 142.969 0 255 255
34.7935 -181.094 142.969 255 255 0
34.9356 -181.094 152.5 255 255 0
38.125 -178.159 142.969 0 255 255
38.125 -178.477 152.5 0 255 255
38.1571 -171.562 95.3125 255 255 0
40.1235 -171.562 104.844 255 255 0
42.2566 -171.562 114.375 255 255 0
43.9675 -162.031 85.7812 255 255 0
46.7541 -162.031 95.3125 255 255 0
47.6562 -154.126 85.7812 0 255 255
47.6562 -152.5 85.1355 255 0 0
47.6562 -160.65 95.3125 0 255 255
48.2612 -152.5 85.7812 255 255 0
52.9782 -152.5 95.3125 255 255 0
47.6562 -163.353 104.844 0 255 255
47.6562 -162.031 98.2162 255 0 0
47.6562 -165.293 114.375 0 255 255
48.741 -162.031 104.844 255 255 0
50.5192 -162.031 114.375 255 255 0
55.9275 -152.5 104.844 255 255 0
57.1875 -154.433 114.375 0 255 255
57.1875 -152.5 109.246 255 0 0
58.328 -152.5 114.375 255 255 0
44.6329 -171.562 123.906 255 255 0
45.7914 -171.562 133.438 255 255 0
47.6562 -172.166 142.969 0 255 255
47.6562 -171.562 139.917 255 0 0
47.6562 -173.951 152.5 0 255 255
48.5263 -171.562 142.969 255 255 0
51.0987 -171.562 152.5 255 255 0
47.6562 -168.151 123.906 0 255 255
47.6562 -170.26 133.438 0 255 255
53.1963 -162.031 123.906 255 255 0
56.5754 -162.031 133.438 255 255 0
57.1875 -157.542 123.906 0 255 255
57.1875 -161.371 133.438 0 255 255
57.1875 -165.517 142.969 0 255 255
57.1875 -162.031 134.91 255 0 0
57.1875 -167.346 152.5 0 255 255
60.5761 -152.5 123.906 255 255 0
63.5423 -152.5 133.438 255 255 0
60.2462 -162.031 142.969 255 255 0
63.0837 -162.031 152.5 255 255 0
66.6417 -152.5 142.969 255 255 0
66.7188 -157.075 152.5 0 255 255
66.7188 -152.5 143.201 255 0 0
69.801 -152.5 152.5 255 255 0
4.30224 -200.156 162.031 255 255 0
9.53125 -206.123 162.031 0 255 255
8.86904 -200.156 171.562 255 255 0
9.53125 -200.912 171.562 0 255 255
0.282552 -190.625 162.031 255 255 0
3.24806 -190.625 171.562 255 255 0
19.0625 -204.793 162.031 0 255 255
16.931 -200.156 171.562 255 255 0
19.0625 -200.156 167.546 255 0 0
19.0625 -197.628 171.562 0 255 255
9.53125 -200.156 172.546 255 0 0
6.41941 -190.625 181.094 255 255 0
9.53125 -194.341 181.094 0 255 255
9.53125 -190.625 187.5 255 0 0
19.0625 -192.306 181.094 0 255 255
19.0625 -190.625 183.653 255 0 0
21.9454 -200.156 162.031 255 255 0
26.5378 -190.625 162.031 255 255 0
28.5938 -190.625 155.287 255 0 0
23.1814 -190.625 171.562 255 255 0
19.8962 -190.625 181.094 255 255 0
1.80202 -181.094 181.094 255 255 0
4.13898 -181.094 190.625 255 255 0
9.53125 -188.378 190.625 0 255 255
19.0625 -187.367 190.625 0 255 255
28.5938 -186.685 162.031 0 255 255
28.5938 -181.649 171.562 0 255 255
33.6653 -181.094 162.031 255 255 0
29.1758 -181.094 171.562 255 255 0
38.125 -178.323 162.031 0 255 255
38.125 -176.254 171.562 0 255 255
25.3982 -181.094 181.094 255 255 0
28.5938 -181.094 172.824 255 0 0
23.5574 -181.094 190.625 255 255 0
28.5938 -177.452 181.094 0 255 255
28.5938 -174.489 190.625 0 255 255
38.125 -174.762 181.094 0 255 255
38.125 -174.321 190.625 0 255 255
9.53125 -187.481 200.156 0 255 255
9.53125 -188.945 209.688 0 255 255
19.0625 -187.685 200.156 0 255 255
19.0625 -189.397 209.688 0 255 255
9.53125 -187.895 219.219 0 255 255
9.53125 -186.049 228.75 0 255 255
19.0625 -187.82 219.219 0 255 255
19.0625 -185.617 228.75 0 255 255
28.5938 -183.292 200.156 0 255 255
28.5938 -181.094 199.164 255 0 0
28.5938 -188.671 209.688 0 255 255
30.4377 -181.094 200.156 255 255 0
38.125 -187.689 209.688 0 255 255
38.125 -181.094 201.592 255 0 0
38.125 -178.422 200.156 0 255 255
28.5938 -187.113 219.219 0 255 255
28.5938 -185.203 228.75 0 255 255
38.125 -185.901 219.219 0 255 255
38.125 -182.785 228.75 0 255 255
47.6562 -174.434 162.031 0 255 255
47.6562 -173.566 171.562 0 255 255
53.5789 -171.562 162.031 255 255 0
53.3047 -171.562 171.562 255 255 0
47.6562 -173.799 181.094 0 255 255
47.6562 -174.833 190.625 0 255 255
53.7829 -171.562 181.094 255 255 0
55.0682 -171.562 190.625 255 255 0
57.1875 -169.162 162.031 0 255 255
57.1875 -169.323 171.562 0 255 255
57.1875 -169.107 181.094 0 255 255
57.1875 -169.856 190.625 0 255 255
65.2328 -162.031 162.031 255 255 0
66.6779 -162.031 171.562 255 255 0
66.7188 -160.224 162.031 0 255 255
66.7188 -161.978 171.562 0 255 255
72.492 -152.5 162.031 255 255 0
73.4003 -152.5 171.562 255 255 0
66.2188 -162.031 181.094 255 255 0
66.7188 -162.031 176.615 255 0 0
66.7188 -162.031 171.9 255 0 0
66.7188 -162.058 190.625 0 255 255
66.7188 -162.031 189.12 255 0 0
66.7188 -161.615 181.094 0 255 255
66.7481 -162.031 190.625 255 255 0
74.2002 -152.5 181.094 255 255 0
74.8153 -152.5 190.625 255 255 0
47.6562 -184.265 209.688 0 255 255
47.6562 -181.094 203.031 255 0 0
47.6562 -179.877 200.156 0 255 255
53.9587 -181.094 209.688 255 255 0
57.1875 -175.919 200.156 0 255 255
57.1875 -171.562 192.522 255 0 0
57.1875 -178.404 209.688 0 255 255
47.6562 -182.206 219.219 0 255 255
43.3671 -181.094 228.75 255 255 0
47.6562 -181.094 222.419 255 0 0
47.6562 -179.71 228.75 0 255 255
50.1391 -181.094 219.219 255 255 0
57.1875 -175.484 219.219 0 255 255
57.1875 -173.752 228.75 0 255 255
61.9582 -171.562 200.156 255 255 0
62.9393 -171.562 209.688 255 255 0
61.7866 -171.562 219.219 255 255 0
59.7555 -171.562 228.75 255 255 0
66.7188 -165.88 200.156 0 255 255
66.7188 -165.642 209.688 0 255 255
69.1097 -162.031 200.156 255 255 0
68.975 -162.031 209.688 255 255 0
74.8963 -152.5 200.156 255 255 0
74.7306 -152.5 209.688 255 255 0
66.7188 -165.449 219.219 0 255 255
66.7188 -164.099 228.75 0 255 255
68.8713 -162.031 219.219 255 255 0
68.2891 -162.031 228.75 255 255 0
73.7644 -152.5 219.219 255 255 0
72.7247 -152.5 228.75 255 255 0
9.53125 -183.983 238.281 0 255 255
3.19215 -181.094 247.812 255 255 0
9.53125 -181.705 247.812 0 255 255
19.0625 -183.551 238.281 0 255 255
15.31 -181.094 247.812 255 255 0
19.0625 -181.094 246.507 255 0 0
19.0625 -180.697 247.812 0 255 255
9.53125 -181.094 249.137 255 0 0
9.53125 -177.233 257.344 0 255 255
0.477009 -171.562 266.875 255 255 0
9.53125 -171.587 266.875 0 255 255
19.0625 -177.269 257.344 0 255 255
9.88093 -171.562 266.875 255 255 0
19.0625 -171.562 266.007 255 0 0
19.0625 -170.908 266.875 0 255 255
28.5938 -182.586 238.281 0 255 255
28.5938 -181.094 243.191 255 0 0
28.5938 -179.613 247.812 0 255 255
36.5613 -181.094 238.281 255 255 0
38.125 -181.094 237.312 255 0 0
38.125 -180.782 238.281 0 255 255
38.125 -177.529 247.812 0 255 255
28.5938 -176.362 257.344 0 255 255
28.5938 -171.562 264.889 255 0 0
38.125 -173.461 257.344 0 255 255
38.125 -171.562 260.483 255 0 0
28.5938 -170.039 266.875 0 255 255
38.125 -167.536 266.875 0 255 255
9.53125 -171.562 266.908 255 0 0
9.53125 -163.665 276.406 0 255 255
9.53125 -162.031 278.104 255 0 0
9.53125 -152.5 285.156 255 0 0
19.0625 -163.662 276.406 0 255 255
19.0625 -162.031 278.066 255 0 0
19.0625 -152.5 285.101 255 0 0
26.3575 -162.031 276.406 255 255 0
28.5938 -162.031 275.897 255 0 0
28.5938 -161.434 276.406 0 255 255
28.5938 -152.5 283.574 255 0 0
38.125 -162.031 272.728 255 0 0
38.125 -157.784 276.406 0 255 255
38.125 -152.5 280.697 255 0 0
47.6562 -177.068 238.281 0 255 255
47.6562 -173.585 247.812 0 255 255
57.1875 -171.601 238.281 0 255 255
51.0869 -171.562 247.812 255 255 0
57.1875 -171.562 238.394 255 0 0
44.0467 -171.562 257.344 255 255 0
47.6562 -171.562 253.109 255 0 0
57.1875 -167.124 247.812 0 255 255
47.6562 -169.212 257.344 0 255 255
47.6562 -162.124 266.875 0 255 255
56.9116 -162.031 257.344 255 255 0
57.1875 -162.031 257.04 255 0 0
47.8195 -162.031 266.875 255 255 0
57.1875 -161.817 257.344 0 255 255
56.8529 -152.5 266.875 255 255 0
57.1875 -152.5 266.509 255 0 0
57.2545 -171.562 238.281 255 255 0
65.2307 -162.031 238.281 255 255 0
66.7188 -162.031 233.644 255 0 0
62.0306 -162.031 247.812 255 255 0
66.7188 -160.072 238.281 0 255 255
66.7188 -155.231 247.812 0 255 255
71.6851 -152.5 238.281 255 255 0
68.3704 -152.5 247.812 255 255 0
64.2272 -152.5 257.344 255 255 0
66.7188 -152.5 251.612 255 0 0
47.6562 -162.031 266.993 255 0 0
44.9487 -152.5 276.406 255 255 0
47.6562 -152.5 274.704 255 0 0
10.1219 -114.375 38.125 255 255 0
19.0625 -114.462 38.125 0 255 255
19.0625 -114.375 37.7774 255 0 0
19.542 -114.375 38.125 255 255 0
9.53125 -142.969 70.7077 255 0 0
9.53125 -133.438 69.4028 255 0 0
19.0625 -142.969 71.2836 255 0 0
19.0625 -133.438 69.247 255 0 0
9.53125 -116.806 47.6562 0 255 255
9.53125 -114.375 38.694 255 0 0
9.53125 -120.629 57.1875 0 255 255
19.0625 -116.929 47.6562 0 255 255
19.0625 -119.539 57.1875 0 255 255
0.265153 -123.906 66.7188 255 255 0
9.53125 -129.069 66.7188 0 255 255
9.53125 -123.906 62.4378 255 0 0
19.0625 -126.811 66.7188 0 255 255
19.0625 -123.906 63.6574 255 0 0
28.5938 -142.969 72.9511 255 0 0
28.5938 -133.438 71.8768 255 0 0
38.125 -144.58 76.25 0 255 255
38.125 -142.969 76.1825 255 0 0
38.125 -133.438 75.7834 255 0 0
27.1567 -114.375 47.6562 255 255 0
28.5938 -115.333 57.1875 0 255 255
28.5938 -114.375 50.9525 255 0 0
30.0562 -114.375 57.1875 255 255 0
25.9816 -123.906 66.7188 255 255 0
28.5938 -123.906 69.0765 255 0 0
28.5938 -121.671 66.7188 0 255 255
38.125 -123.906 74.5049 255 0 0
36.2522 -114.375 66.7188 255 255 0
38.125 -114.375 70.8386 255 0 0
9.53125 -112.432 28.5938 0 255 255
9.53125 -114.234 38.125 0 255 255
19.0625 -112.371 28.5938 0 255 255
28.5938 -109.954 28.5938 0 255 255
28.5938 -111.247 38.125 0 255 255
38.125 -106.708 28.5938 0 255 255
38.125 -106.458 38.125 0 255 255
28.5938 -113.703 47.6562 0 255 255
38.125 -106.767 47.6562 0 255 255
38.125 -108.258 57.1875 0 255 255
38.125 -111.18 66.7188 0 255 255
38.2575 -142.969 76.25 255 255 0
38.936 -133.438 76.25 255 255 0
39.8905 -123.906 76.25 255 255 0
42.4779 -114.375 76.25 255 255 0
41.4262 -104.844 28.5938 255 255 0
40.4693 -104.844 38.125 255 255 0
47.6562 -101.325 28.5938 0 255 255
47.6562 -99.996 38.125 0 255 255
55.9326 -95.3125 28.5938 255 255 0
57.1875 -95.3125 23.159 255 0 0
53.0359 -95.3125 38.125 255 255 0
57.1875 -94.3385 28.5938 0 255 255
57.1875 -91.9398 38.125 0 255 255
66.7188 -86.4244 28.5938 0 255 255
63.4641 -85.7812 38.125 255 255 0
66.7188 -85.7812 30.5924 255 0 0
66.7188 -82.1672 38.125 0 255 255
67.3338 -85.7812 28.5938 255 255 0
76.25 -76.457 28.5938 0 255 255
71.5942 -76.25 38.125 255 255 0
76.25 -76.25 29.2475 255 0 0
40.1354 -104.844 47.6562 255 255 0
41.311 -104.844 57.1875 255 255 0
47.6562 -98.3115 47.6562 0 255 255
47.6562 -97.9798 57.1875 0 255 255
50.841 -95.3125 47.6562 255 255 0
50.3773 -95.3125 57.1875 255 255 0
42.887 -104.844 66.7188 255 255 0
46.6644 -104.844 76.25 255 255 0
47.6562 -99.5136 66.7188 0 255 255
47.6562 -102.204 76.25 0 255 255
51.3749 -95.3125 66.7188 255 255 0
52.5276 -95.3125 76.25 255 255 0
57.1875 -88.9566 47.6562 0 255 255
57.1875 -87.6962 57.1875 0 255 255
57.1875 -86.8071 66.7188 0 255 255
57.1875 -88.5377 76.25 0 255 255
60.0757 -85.7812 47.6562 255 255 0
58.6061 -85.7812 57.1875 255 255 0
66.7188 -77.5179 47.6562 0 255 255
64.692 -76.25 57.1875 255 255 0
66.7188 -76.25 50.1159 255 0 0
67.4248 -76.25 47.6562 255 255 0
57.9723 -85.7812 66.7188 255 255 0
58.8728 -85.7812 76.25 255 255 0
64.0362 -76.25 66.7188 255 255 0
63.5516 -76.25 76.25 255 255 0
47.6562 -142.969 81.405 255 0 0
47.6562 -133.438 81.8339 255 0 0
51.4376 -142.969 85.7812 255 255 0
57.1875 -144.344 95.3125 0 255 255
57.1875 -142.969 93.837 255 0 0
52.7923 -133.438 85.7812 255 255 0
57.1875 -133.438 89.8172 255 0 0
57.1875 -150.28 104.844 0 255 255
47.6562 -123.906 82.1737 255 0 0
47.6562 -114.375 82.0677 255 0 0
52.7088 -123.906 85.7812 255 255 0
57.1875 -123.906 90.0468 255 0 0
51.2221 -114.375 85.7812 255 255 0
57.1875 -114.375 92.0084 255 0 0
57.7526 -142.969 95.3125 255 255 0
61.6684 -133.438 95.3125 255 255 0
61.3361 -142.969 104.844 255 255 0
63.9421 -142.969 114.375 255 255 0
64.9967 -133.438 104.844 255 255 0
66.7188 -136.975 114.375 0 255 255
66.7188 -133.438 109.923 255 0 0
67.8925 -133.438 114.375 255 255 0
61.8781 -123.906 95.3125 255 255 0
60.2426 -114.375 95.3125 255 255 0
66.7188 -128.151 104.844 0 255 255
66.7188 -123.906 103.757 255 0 0
66.7188 -114.375 104.197 255 0 0
67.2291 -123.906 104.844 255 255 0
70.8069 -123.906 114.375 255 255 0
67.0165 -114.375 104.844 255 255 0
70.6797 -114.375 114.375 255 255 0
66.495 -142.969 123.906 255 255 0
66.7188 -147.395 133.438 0 255 255
66.7188 -142.969 124.858 255 0 0
66.7188 -142.478 123.906 0 255 255
68.7347 -142.969 133.438 255 255 0
70.3227 -133.438 123.906 255 255 0
72.753 -133.438 133.438 255 255 0
66.7188 -152.386 142.969 0 255 255
71.2413 -142.969 142.969 255 255 0
73.8919 -142.969 152.5 255 255 0
74.9863 -133.438 142.969 255 255 0
76.25 -137.238 152.5 0 255 255
76.25 -133.438 148.314 255 0 0
72.6411 -123.906 123.906 255 255 0
74.4753 -123.906 133.438 255 255 0
73.068 -114.375 123.906 255 255 0
75.1756 -114.375 133.438 255 255 0
76.25 -125.401 142.969 0 255 255
76.25 -123.906 142.013 255 0 0
76.25 -114.375 138.262 255 0 0
47.6562 -104.844 78.1098 255 0 0
51.424 -104.844 85.7812 255 255 0
57.1875 -104.844 92.9247 255 0 0
55.0817 -95.3125 85.7812 255 255 0
57.1875 -95.3125 91.0755 255 0 0
57.1875 -91.3305 85.7812 0 255 255
58.5641 -104.844 95.3125 255 255 0
58.4077 -95.3125 95.3125 255 255 0
63.345 -104.844 104.844 255 255 0
66.7188 -113.401 104.844 0 255 255
66.7188 -104.844 110.528 255 0 0
62.2635 -95.3125 104.844 255 255 0
65.7473 -95.3125 114.375 255 255 0
66.7188 -99.1476 114.375 0 255 255
68.4899 -104.844 114.375 255 255 0
59.9479 -85.7812 85.7812 255 255 0
61.4783 -85.7812 95.3125 255 255 0
64.1927 -76.25 85.7812 255 255 0
64.6603 -76.25 95.3125 255 255 0
63.6305 -85.7812 104.844 255 255 0
65.3566 -85.7812 114.375 255 255 0
65.7639 -76.25 104.844 255 255 0
66.4895 -76.25 114.375 255 255 0
66.7188 -95.3125 118.399 255 0 0
72.04 -104.844 123.906 255 255 0
74.3807 -104.844 133.438 255 255 0
68.6559 -95.3125 123.906 255 255 0
72.0083 -95.3125 133.438 255 255 0
76.25 -104.844 140.385 255 0 0
76.25 -95.3125 138.31 255 0 0
66.7188 -85.7812 120.724 255 0 0
66.7188 -76.25 117.386 255 0 0
67.205 -85.7812 123.906 255 255 0
68.6494 -85.7812 133.438 255 255 0
67.2337 -76.25 123.906 255 255 0
68.5574 -76.25 133.438 255 255 0
76.25 -85.7812 141.767 255 0 0
71.0158 -76.25 142.969 255 255 0
76.25 -84.1986 142.969 0 255 255
76.25 -76.25 149.715 255 0 0
30.9033 0 76.25 255 255 0
38.125 -3.81067 76.25 0 255 255
38.125 0 67.2034 255 0 0
76.25 -69.2077 38.125 0 255 255
66.7188 -72.6139 57.1875 0 255 255
72.733 -66.7188 47.6562 255 255 0
76.25 -66.7188 40.5655 255 0 0
69.7047 -66.7188 57.1875 255 255 0
74.9827 -57.1875 47.6562 255 255 0
76.25 -57.1875 45.4166 255 0 0
70.92 -57.1875 57.1875 255 255 0
66.7188 -67.1576 66.7188 0 255 255
65.7358 -66.7188 76.25 255 255 0
66.7188 -66.7188 66.9491 255 0 0
66.1235 -57.1875 76.25 255 255 0
66.7188 -57.1875 71.8183 255 0 0
66.7377 -66.7188 66.7188 255 255 0
67.5002 -57.1875 66.7188 255 255 0
76.25 -51.1826 47.6562 0 255 255
70.9735 -47.6562 57.1875 255 255 0
76.25 -47.6562 48.1444 255 0 0
70.1497 -38.125 57.1875 255 255 0
76.25 -38.125 48.3683 255 0 0
65.0335 -47.6562 76.25 255 255 0
66.7188 -47.6562 67.5213 255 0 0
65.2828 -38.125 66.7188 255 255 0
66.7188 -45.5346 66.7188 0 255 255
66.7188 -38.125 63.9159 255 0 0
63.0083 -38.125 76.25 255 255 0
67.1299 -47.6562 66.7188 255 255 0
63.4384 0 38.125 255 255 0
66.7188 -2.72571 38.125 0 255 255
66.7188 0 35.4586 255 0 0
73.2591 -9.53125 38.125 255 255 0
76.25 -13.5881 38.125 0 255 255
76.25 -9.53125 35.3897 255 0 0
