ply
format ascii 1.0
comment VCGLIB generated
element vertex 169
property float x
property float y
property float z
property uchar red
property uchar green
property uchar blue
end_header
-3.1875 -3.375 -1.06882 255 0 0
-3.1875 -3.375 -1.00341 255 0 0
-3.1875 -3.30272 -1.125 0 255 255
-3.1875 -3.22871 -1.125 0 255 255
-3.80293 -1.5 -0.1875 255 255 0
-3.8278 -1.5 -0.1875 255 255 0
-3.88379 -1.5 -0.1875 255 255 0
-3 -2.8125 -0.979068 255 0 0
-3 -2.8125 -0.967664 255 0 0
-3.71298 -1.125 -0.1875 255 255 0
-3.64846 -1.125 -0.1875 255 255 0
-3.65286 -1.125 0 255 255 0
-3.60788 -1.125 0 255 255 0
-3.74484 -0.9375 -0.1875 255 255 0
-3.68317 -0.9375 -0.1875 255 255 0
-3.67739 -0.9375 0 255 255 0
-3.59699 -0.9375 0 255 255 0
-3.67434 -0.75 0 255 255 0
-3.60227 -0.75 0 255 255 0
-3.65799 -0.5625 0 255 255 0
-3.61292 -0.5625 0 255 255 0
-3.63949 -0.375 0 255 255 0
-3.62739 -0.375 0 255 255 0
-3.60773 -0.1875 0 255 255 0
-3.64907 -0.1875 0 255 255 0
-3.57772 0 0 255 255 0
-3.65553 0 0 255 255 0
-2.625 -3.53094 -1.3125 0 255 255
-2.625 -3.55084 -1.3125 0 255 255
-2.625 -3.4964 -0.9375 0 255 255
-2.625 -3.55 -0.9375 0 255 255
-2.8125 -3.1875 -1.09603 255 0 0
-2.8125 -3.1875 -0.963324 255 0 0
-2.827 -1.5 -1.125 255 255 0
-2.96948 -1.5 -1.125 255 255 0
-2.54655 -1.6875 -0.75 255 255 0
-2.50854 -1.6875 -0.75 255 255 0
-2.45436 -1.6875 -0.75 255 255 0
-2.36252 -1.875 -0.1875 255 255 0
-2.26798 -1.875 -0.1875 255 255 0
-3.1875 -3.375 1.0393 255 0 0
-3.1875 -3.375 1.00341 255 0 0
-3.1875 -3.30272 1.125 0 255 255
-3.1875 -3.22871 1.125 0 255 255
-4.3125 -1.5 0.0623404 255 0 0
-4.3125 -1.5 0.0205079 255 0 0
-3 -2.8125 0.979068 255 0 0
-3 -2.8125 0.967664 255 0 0
-2.625 -3.4964 0.9375 0 255 255
-2.625 -3.55 0.9375 0 255 255
-2.625 -3.53094 1.3125 0 255 255
-2.625 -3.55084 1.3125 0 255 255
-2.8125 -3.1875 1.09603 255 0 0
-2.8125 -3.1875 0.963324 255 0 0
-2.36252 -1.875 0.1875 255 255 0
-2.26798 -1.875 0.1875 255 255 0
-2.54655 -1.6875 0.75 255 255 0
-2.50854 -1.6875 0.75 255 255 0
-2.45436 -1.6875 0.75 255 255 0
-2.827 -1.5 1.125 255 255 0
-2.96948 -1.5 1.125 255 255 0
-3.5625 0.375 -0.505726 255 0 0
-3.5625 0.375 -0.555532 255 0 0
-3.58843 0.75 0 255 255 0
-3.68781 0.75 0 255 255 0
-3.62344 0.9375 0 255 255 0
-3.6983 0.9375 0 255 255 0
-3.61194 1.125 0 255 255 0
-3.69355 1.125 0 255 255 0
-3.61854 1.3125 0 255 255 0
-3.67607 1.3125 0 255 255 0
-3.70129 1.5 0 255 255 0
-3.6418 1.5 0 255 255 0
-3.5625 1.67082 0 0 255 255
-3.5625 1.61838 0 0 255 255
-3.53139 1.6875 0 255 255 0
-3.5162 1.6875 0 255 255 0
-3.375 1.75643 0 0 255 255
-3.375 1.76873 0 0 255 255
-3.5625 0.375 0.505726 255 0 0
-3.5625 0.375 0.555532 255 0 0
2.25 -3.4001 -0.75 0 255 255
2.25 -3.54543 -0.75 0 255 255
1.5 -1.875 -0.872722 255 0 0
1.5 -1.875 -0.786052 255 0 0
1.6875 -2.625 -0.888054 255 0 0
1.6875 -2.625 -0.791725 255 0 0
1.74227 -2.8125 -0.9375 255 255 0
1.84455 -2.8125 -0.9375 255 255 0
1.77144 -2.625 -0.9375 255 255 0
1.79286 -2.625 -0.9375 255 255 0
1.6875 -2.4375 -0.910434 255 0 0
1.6875 -2.4375 -0.755833 255 0 0
2.0625 -1.5 -0.678659 255 0 0
2.0625 -1.5 -0.637855 255 0 0
2.25 -3.4001 0.75 0 255 255
2.25 -3.54543 0.75 0 255 255
1.5 -1.875 0.872722 255 0 0
1.5 -1.875 0.786052 255 0 0
1.6875 -2.625 0.888054 255 0 0
1.6875 -2.625 0.791725 255 0 0
1.74227 -2.8125 0.9375 255 255 0
1.84455 -2.8125 0.9375 255 255 0
1.77144 -2.625 0.9375 255 255 0
1.79286 -2.625 0.9375 255 255 0
1.6875 -2.4375 0.910434 255 0 0
1.6875 -2.4375 0.755833 255 0 0
2.0625 -1.5 0.678659 255 0 0
2.0625 -1.5 0.637855 255 0 0
4.1074 1.875 -0.75 255 255 0
4.12382 1.875 -0.75 255 255 0
4.07691 2.0625 -1.3125 255 255 0
4.11764 2.0625 -1.3125 255 255 0
4.125 2.10222 -1.125 0 255 255
4.125 2.08957 -1.125 0 255 255
4.125 2.0625 -1.00675 255 0 0
4.125 2.0625 -1.09285 255 0 0
4.3125 2.25 -0.769747 255 0 0
4.3125 2.25 -0.919981 255 0 0
4.125 1.73713 -0.5625 0 255 255
4.125 1.76982 -0.5625 0 255 255
4.26548 1.875 -0.5625 255 255 0
4.15 1.875 -0.5625 255 255 0
4.125 2.4375 -1.32092 255 0 0
4.125 2.4375 -1.32746 255 0 0
4.12805 2.4375 -1.3125 255 255 0
4.13795 2.4375 -1.3125 255 255 0
4.21472 2.4375 -1.125 255 255 0
4.21866 2.4375 -1.125 255 255 0
4.3125 2.36396 -0.9375 0 255 255
4.3125 2.26546 -0.9375 0 255 255
4.125 2.4213 -0.5625 0 255 255
4.125 2.29721 -0.5625 0 255 255
5.25 1.27562 -0.375 0 255 255
5.25 1.14957 -0.375 0 255 255
5.625 1.12027 -0.375 0 255 255
5.625 1.07432 -0.375 0 255 255
4.875 2.625 -0.901204 255 0 0
4.875 2.625 -0.803822 255 0 0
4.125 1.73713 0.5625 0 255 255
4.125 1.76982 0.5625 0 255 255
4.1074 1.875 0.75 255 255 0
4.12382 1.875 0.75 255 255 0
4.26548 1.875 0.5625 255 255 0
4.15 1.875 0.5625 255 255 0
4.125 2.0625 1.00675 255 0 0
4.125 2.0625 1.09285 255 0 0
4.125 2.10222 1.125 0 255 255
4.125 2.08957 1.125 0 255 255
4.07691 2.0625 1.3125 255 255 0
4.11764 2.0625 1.3125 255 255 0
4.3125 2.25 0.769747 255 0 0
4.3125 2.25 0.919981 255 0 0
4.125 2.4213 0.5625 0 255 255
4.125 2.29721 0.5625 0 255 255
4.125 2.4375 1.32092 255 0 0
4.125 2.4375 1.32746 255 0 0
4.3125 2.36396 0.9375 0 255 255
4.3125 2.26546 0.9375 0 255 255
4.21472 2.4375 1.125 255 255 0
4.21866 2.4375 1.125 255 255 0
4.12805 2.4375 1.3125 255 255 0
4.13795 2.4375 1.3125 255 255 0
5.25 1.27562 0.375 0 255 255
5.25 1.14957 0.375 0 255 255
5.625 1.12027 0.375 0 255 255
5.625 1.07432 0.375 0 255 255
4.875 2.625 0.901204 255 0 0
4.875 2.625 0.803822 255 0 0
