ply
format ascii 1.0
comment VCGLIB generated
element vertex 200
property float x
property float y
property float z
property uchar red
property uchar green
property uchar blue
end_header
-10.5 -8.53125 -2.60589 255 0 0
-10.5 -8.53125 -2.49064 255 0 0
-14.4375 -0.764053 -1.96875 0 255 255
-14.4375 -0.87543 -1.96875 0 255 255
-2.625 -10.5 -9.54854 255 0 0
-2.625 -10.5 -9.57347 255 0 0
-1.96875 -12.4688 -8.99189 255 0 0
-1.96875 -12.4688 -8.96621 255 0 0
-2.625 -9.1875 -9.76627 255 0 0
-2.625 -9.1875 -9.47601 255 0 0
-1.96875 -8.53125 -9.63541 255 0 0
-1.96875 -8.53125 -9.36955 255 0 0
-1.3125 -7.875 -9.52116 255 0 0
-1.3125 -7.875 -9.26309 255 0 0
-10.5 -15.9699 10.5 0 255 255
-10.5 -16.3436 10.5 0 255 255
-10.5 -13.7812 9.92842 255 0 0
-10.5 -13.7812 10.3151 255 0 0
-8.53125 -15.75 4.25132 255 0 0
-8.53125 -15.75 4.29861 255 0 0
-6.5625 -18.375 0.530567 255 0 0
-6.5625 -18.375 0.0502321 255 0 0
-5.25 -18.375 3.77561 255 0 0
-5.25 -18.375 3.87765 255 0 0
-5.92236 -19.0312 5.25 255 255 0
-6.07597 -19.0312 5.25 255 255 0
-6.5625 -20.3438 8.01407 255 0 0
-6.5625 -20.3438 8.01272 255 0 0
-6.2027 -20.3438 8.53125 255 255 0
-6.00461 -20.3438 8.53125 255 255 0
-5.90625 -20.3438 8.3581 255 0 0
-5.90625 -20.3438 8.0211 255 0 0
-8.53125 -13.125 4.80954 255 0 0
-8.53125 -13.125 5.05288 255 0 0
-9.1875 -15.3739 5.90625 0 255 255
-9.1875 -15.7332 5.90625 0 255 255
-2.625 -13.4769 7.875 0 255 255
-2.625 -13.3922 7.875 0 255 255
-8.53125 -11.1562 11.5266 255 0 0
-8.53125 -11.1562 11.2782 255 0 0
-5.79143 -13.125 13.7812 255 255 0
-5.33397 -13.125 13.7812 255 255 0
-5.25 -11.8125 11.0616 255 0 0
-5.25 -11.8125 10.9891 255 0 0
-3.28125 -13.7812 13.4259 255 0 0
-3.28125 -13.7812 13.4563 255 0 0
-5.8673 -1.3125 2.625 255 255 0
-5.75032 -1.3125 2.625 255 255 0
-5.70416 0 0.65625 255 255 0
-5.55691 0 0.65625 255 255 0
-5.77692 -0.65625 1.96875 255 255 0
-5.50691 -0.65625 1.96875 255 255 0
-7.21875 0.65625 -0.0986188 255 0 0
-7.21875 0.65625 -0.495563 255 0 0
-5.25 1.06583 0 0 255 255
-5.25 0.657902 0 0 255 255
-6.5625 8.75281 -4.59375 0 255 255
-6.5625 8.6811 -4.59375 0 255 255
-2.625 2.04503 -2.625 0 255 255
-2.625 2.0002 -2.625 0 255 255
-3.9375 1.79543 -1.96875 0 255 255
-3.9375 1.60767 -1.96875 0 255 255
-1.96875 8.03723 -5.25 0 255 255
-1.96875 8.31827 -5.25 0 255 255
-1.49823 8.53125 -5.25 255 255 0
-1.39799 8.53125 -5.25 255 255 0
-1.3125 8.49931 -5.25 0 255 255
-1.3125 7.99406 -5.25 0 255 255
-0.65625 8.25412 -5.25 0 255 255
-0.65625 8.1784 -5.25 0 255 255
-6.58814 17.0625 0 255 255 0
-6.91108 17.0625 0 255 255 0
-6.61583 18.375 0 255 255 0
-7.18185 18.375 0 255 255 0
-6.79232 19.0312 0 255 255 0
-7.18989 19.0312 0 255 255 0
-17.0625 3.28125 1.18863 255 0 0
-17.0625 3.28125 0.859513 255 0 0
-10.5 4.59375 1.75554 255 0 0
-10.5 4.59375 1.45259 255 0 0
-8.53125 1.96875 1.80256 255 0 0
-8.53125 1.96875 1.50047 255 0 0
-2.625 0.630371 3.9375 0 255 255
-2.625 0.584017 3.9375 0 255 255
-2.625 1.96875 5.96186 255 0 0
-2.625 1.96875 5.95723 255 0 0
-1.96875 4.89681 10.5 0 255 255
-1.96875 4.67769 10.5 0 255 255
-3.28125 8.21736 8.53125 0 255 255
-3.28125 8.31942 8.53125 0 255 255
-1.96875 7.28954 8.53125 0 255 255
-1.96875 7.51293 8.53125 0 255 255
-0.65625 7.476 8.53125 0 255 255
-0.65625 7.49242 8.53125 0 255 255
0 7.40382 8.53125 0 255 255
0 7.63731 8.53125 0 255 255
-9.84375 11.1562 1.55256 255 0 0
-9.84375 11.1562 1.50779 255 0 0
-7.39941 14.4375 1.96875 255 255 0
-7.281 14.4375 1.96875 255 255 0
-7.45984 14.4375 1.96875 255 255 0
-7.21875 14.6874 1.3125 0 255 255
-7.21875 14.5432 1.3125 0 255 255
-5.90625 15.593 3.9375 0 255 255
-5.90625 15.1645 3.9375 0 255 255
-4.59375 15.9496 0.65625 0 255 255
-4.59375 15.8898 0.65625 0 255 255
-3.9375 16.7572 0.65625 0 255 255
-3.9375 16.8458 0.65625 0 255 255
-3.28125 16.2879 1.3125 0 255 255
-3.28125 16.2134 1.3125 0 255 255
-2.625 17.0654 1.96875 0 255 255
-2.625 17.1011 1.96875 0 255 255
-3.28125 15.9853 3.28125 0 255 255
-3.28125 15.9 3.28125 0 255 255
-2.625 17.7188 2.64381 255 0 0
-2.625 17.7188 2.97908 255 0 0
-0.0481915 16.4062 1.3125 255 255 0
-0.0695654 16.4062 1.3125 255 255 0
-0.65625 16.4062 1.79178 255 0 0
-0.65625 16.4062 1.4556 255 0 0
-0.0969006 16.4062 1.96875 255 255 0
-0.0528115 16.4062 1.96875 255 255 0
0 16.4062 1.34563 255 0 0
0 16.4062 1.93131 255 0 0
2.625 -10.5645 -9.84375 0 255 255
2.625 -10.8508 -9.84375 0 255 255
2.625 -10.5 -9.64392 255 0 0
2.625 -10.5 -9.82028 255 0 0
2.625 -10.5 -9.20551 255 0 0
1.3125 -7.875 -9.15932 255 0 0
1.3125 -7.875 -9.15351 255 0 0
1.96875 -9.1875 -9.29721 255 0 0
1.96875 -9.1875 -9.25958 255 0 0
1.96875 -8.53125 -9.57361 255 0 0
1.96875 -8.53125 -9.19362 255 0 0
1.96875 -7.875 -9.98741 255 0 0
1.96875 -7.875 -10.1054 255 0 0
8.53125 -2.62861 -5.25 0 255 255
8.53125 -3.23933 -5.25 0 255 255
8.02089 -1.3125 -2.625 255 255 0
8.46971 -1.3125 -2.625 255 255 0
9.86996 -1.3125 -2.625 255 255 0
9.97754 -1.3125 -2.625 255 255 0
14.4375 -3.29458 -2.625 0 255 255
14.4375 -3.57903 -2.625 0 255 255
14.0978 -4.59375 -1.96875 255 255 0
14.2702 -4.59375 -1.96875 255 255 0
0.748031 -18.375 1.96875 255 255 0
0.874779 -18.375 1.96875 255 255 0
3.9375 -18.375 1.65389 255 0 0
3.9375 -18.375 1.34707 255 0 0
6.5625 -17.7188 1.38483 255 0 0
6.5625 -17.7188 1.65296 255 0 0
7.21875 -20.3438 7.47422 255 0 0
7.21875 -20.3438 7.53687 255 0 0
9.84375 -18.375 9.26469 255 0 0
9.84375 -18.375 9.39792 255 0 0
9.1875 -17.5852 6.5625 0 255 255
9.1875 -17.2336 6.5625 0 255 255
2.4349 -19.0312 11.8125 255 255 0
2.44398 -19.0312 11.8125 255 255 0
9.84375 -15.9943 11.1562 0 255 255
9.84375 -16.3295 11.1562 0 255 255
8.53125 -5.82159 1.96875 0 255 255
8.53125 -5.5159 1.96875 0 255 255
15.3738 -7.875 3.28125 255 255 0
15.4768 -7.875 3.28125 255 255 0
12.3534 -4.59375 6.5625 255 255 0
12.4047 -4.59375 6.5625 255 255 0
17.0625 -7.05771 1.96875 0 255 255
17.0625 -6.82437 1.96875 0 255 255
0.65625 2.10574 -2.625 0 255 255
0.65625 2.118 -2.625 0 255 255
1.96875 1.54185 -1.96875 0 255 255
1.96875 1.72454 -1.96875 0 255 255
3.3842 15.0938 0 255 255 0
3.42278 15.0938 0 255 255 0
3.9375 14.9849 0 0 255 255
3.9375 14.8533 0 0 255 255
3.28125 16.0404 0 0 255 255
3.28125 16.3212 0 0 255 255
2.625 0.509425 2.625 0 255 255
2.625 0.479188 2.625 0 255 255
3.28125 0.635054 0.65625 0 255 255
3.28125 0.500355 0.65625 0 255 255
3.28125 0.498487 1.3125 0 255 255
3.28125 0.438551 1.3125 0 255 255
3.9375 0.555269 1.3125 0 255 255
3.9375 0.0400475 1.3125 0 255 255
3.28125 0.402089 1.96875 0 255 255
3.28125 0.229805 1.96875 0 255 255
3.28125 0.565559 2.625 0 255 255
3.28125 0.0537604 2.625 0 255 255
0.65625 7.33165 8.53125 0 255 255
0.65625 7.7822 8.53125 0 255 255
5.90625 14.2035 0.65625 0 255 255
5.90625 13.8885 0.65625 0 255 255
10.9036 0.65625 3.9375 255 255 0
10.7622 0.65625 3.9375 255 255 0
