ply
format ascii 1.0
comment VCGLIB generated
element vertex 1434
property float x
property float y
property float z
property uchar red
property uchar green
property uchar blue
end_header
-9.1875 -12.8711 8.53125 0 255 255
-9.1875 -12.5015 9.1875 0 255 255
-9.84375 -12.7894 9.84375 0 255 255
-9.97943 -12.4688 10.5 255 255 0
-9.84375 -12.4688 10.1682 255 0 0
-9.84375 -12.1408 10.5 0 255 255
-9.61905 -12.4688 9.84375 255 255 0
-9.1875 -12.4688 9.22065 255 0 0
-9.1875 -12.1075 9.84375 0 255 255
-9.43591 -11.8125 10.5 255 255 0
-9.1875 -11.8125 10.3576 255 0 0
-9.1875 -11.732 10.5 0 255 255
-8.84654 -12.4688 8.53125 255 255 0
-9.14041 -12.4688 9.1875 255 255 0
-8.53125 -12.2833 8.53125 0 255 255
-8.53125 -12.1571 9.1875 0 255 255
-7.875 -11.8972 8.53125 0 255 255
-7.948 -11.8125 9.1875 255 255 0
-7.875 -11.8125 8.96758 255 0 0
-8.53125 -11.8916 9.84375 0 255 255
-8.53125 -11.8125 9.98158 255 0 0
-8.29073 -11.8125 9.84375 255 255 0
-7.875 -11.7694 9.1875 0 255 255
-8.53125 -11.5292 10.5 0 255 255
-7.875 -11.6407 9.84375 0 255 255
-7.875 -11.3263 10.5 0 255 255
-7.79026 -11.8125 5.90625 255 255 0
-7.75149 -11.8125 6.5625 255 255 0
-7.71193 -11.8125 7.21875 255 255 0
-7.67236 -11.8125 7.875 255 255 0
-7.63311 -11.1562 5.90625 255 255 0
-7.21875 -11.4966 6.5625 0 255 255
-7.21875 -11.1562 6.28948 255 0 0
-7.63021 -10.5 5.90625 255 255 0
-7.21875 -10.5 6.28101 255 0 0
-6.92355 -11.1562 6.5625 255 255 0
-6.90976 -10.5 6.5625 255 255 0
-7.21875 -11.5124 7.21875 0 255 255
-7.21875 -11.5282 7.875 0 255 255
-6.5625 -11.242 7.21875 0 255 255
-6.5625 -11.1562 6.89313 255 0 0
-6.5625 -11.3623 7.875 0 255 255
-6.5625 -10.5 6.87905 255 0 0
-6.20529 -11.1562 7.21875 255 255 0
-5.90625 -11.3815 7.875 0 255 255
-5.90625 -11.1562 7.4564 255 0 0
-6.18527 -10.5 7.21875 255 255 0
-5.90625 -10.5 7.46912 255 0 0
-5.25 -11.4235 7.875 0 255 255
-5.25 -11.1562 7.62117 255 0 0
-5.25 -10.5 7.65902 255 0 0
-7.73095 -11.8125 8.53125 255 255 0
-7.21875 -11.5103 8.53125 0 255 255
-7.21875 -11.4442 9.1875 0 255 255
-6.5625 -11.5165 8.53125 0 255 255
-6.5625 -11.5115 9.1875 0 255 255
-7.21875 -11.4392 9.84375 0 255 255
-7.21875 -11.3678 10.5 0 255 255
-6.5625 -11.504 9.84375 0 255 255
-6.5625 -11.492 10.5 0 255 255
-5.90625 -11.5445 8.53125 0 255 255
-5.90625 -11.5788 9.1875 0 255 255
-5.25 -11.5721 8.53125 0 255 255
-5.25 -11.6466 9.1875 0 255 255
-5.90625 -11.5676 9.84375 0 255 255
-5.90625 -11.5557 10.5 0 255 255
-5.25 -11.7062 9.84375 0 255 255
-5.25 -11.7658 10.5 0 255 255
-4.59375 -18.8029 0.65625 0 255 255
-4.59375 -18.7714 1.3125 0 255 255
-3.9375 -18.8767 0.65625 0 255 255
-3.9375 -18.8232 1.3125 0 255 255
-4.59375 -18.7154 1.96875 0 255 255
-4.59375 -18.5496 2.625 0 255 255
-3.9375 -18.7448 1.96875 0 255 255
-3.9375 -18.5192 2.625 0 255 255
-3.28125 -18.9135 0.65625 0 255 255
-3.28125 -18.86 1.3125 0 255 255
-2.625 -18.9184 0.65625 0 255 255
-2.625 -18.8967 1.3125 0 255 255
-3.28125 -18.7742 1.96875 0 255 255
-3.28125 -18.5487 2.625 0 255 255
-2.625 -18.8036 1.96875 0 255 255
-2.625 -18.5781 2.625 0 255 255
-4.59375 -18.3861 3.28125 0 255 255
-4.98208 -18.375 3.9375 255 255 0
-4.59375 -18.375 3.32568 255 0 0
-4.50525 -18.375 3.28125 255 255 0
-3.9375 -18.375 3.04464 255 0 0
-4.59375 -18.3935 4.59375 0 255 255
-4.59375 -18.375 4.44479 255 0 0
-4.59375 -18.4468 5.25 0 255 255
-4.52853 -18.375 4.59375 255 255 0
-4.51335 -18.375 5.25 255 255 0
-3.28125 -18.375 3.1302 255 0 0
-2.625 -18.375 3.15506 255 0 0
-4.59375 -18.312 3.9375 0 255 255
-3.9375 -18.304 3.28125 0 255 255
-3.9375 -18.1405 3.9375 0 255 255
-3.9375 -18.2073 4.59375 0 255 255
-3.9375 -17.8605 5.25 0 255 255
-3.28125 -18.3231 3.28125 0 255 255
-3.28125 -18.0975 3.9375 0 255 255
-2.625 -18.326 3.28125 0 255 255
-2.625 -18.0714 3.9375 0 255 255
-3.3062 -17.7188 4.59375 255 255 0
-3.28125 -17.7188 4.5903 255 0 0
-3.7789 -17.7188 5.25 255 255 0
-3.28125 -17.7161 4.59375 0 255 255
-3.28125 -17.2741 5.25 0 255 255
-3.19411 -17.7188 4.59375 255 255 0
-2.625 -17.736 4.59375 0 255 255
-2.625 -17.7188 4.61626 255 0 0
-2.625 -17.2339 5.25 0 255 255
-1.96875 -18.8856 0.65625 0 255 255
-1.96875 -18.8757 1.3125 0 255 255
-1.3125 -18.8528 0.65625 0 255 255
-1.3125 -18.7666 1.3125 0 255 255
-1.96875 -18.8014 1.96875 0 255 255
-1.96875 -18.5483 2.625 0 255 255
-1.3125 -18.6606 1.96875 0 255 255
-1.3125 -18.516 2.625 0 255 255
-0.65625 -18.7318 0.65625 0 255 255
-0.65625 -18.6257 1.3125 0 255 255
0 -18.6486 0.65625 0 255 255
0 -18.5399 1.3125 0 255 255
-0.65625 -18.5197 1.96875 0 255 255
-0.65625 -18.4137 2.625 0 255 255
0 -18.4312 1.96875 0 255 255
-0.476166 -18.375 2.625 255 255 0
0 -18.375 2.3084 255 0 0
-1.96875 -18.375 3.07171 255 0 0
-1.3125 -18.375 2.98837 255 0 0
-0.65625 -18.375 2.86424 255 0 0
0 -18.3226 2.625 0 255 255
-1.96875 -18.2937 3.28125 0 255 255
-1.96875 -18.0287 3.9375 0 255 255
-1.3125 -18.2614 3.28125 0 255 255
-1.3125 -17.9843 3.9375 0 255 255
-1.96875 -17.7398 4.59375 0 255 255
-1.96875 -17.7188 4.64156 255 0 0
-1.96875 -17.2541 5.25 0 255 255
-1.65788 -17.7188 4.59375 255 255 0
-1.3125 -17.7188 4.54063 255 0 0
-1.3125 -17.6954 4.59375 0 255 255
-1.3125 -17.2772 5.25 0 255 255
-0.65625 -18.2287 3.28125 0 255 255
-0.65625 -17.9398 3.9375 0 255 255
0 -18.2378 3.28125 0 255 255
0 -17.9662 3.9375 0 255 255
-0.65625 -17.7188 4.47806 255 0 0
-0.65625 -17.6725 4.59375 0 255 255
-0.65625 -17.2448 5.25 0 255 255
0 -17.7188 4.55669 255 0 0
0 -17.7039 4.59375 0 255 255
0 -17.1821 5.25 0 255 255
-5.11215 -19.0312 5.90625 255 255 0
-4.71693 -19.0312 6.5625 255 255 0
-4.59375 -18.732 5.90625 0 255 255
-4.59375 -18.8985 6.5625 0 255 255
-4.18497 -18.375 5.90625 255 255 0
-4.1839 -18.375 6.5625 255 255 0
-4.69695 -19.0312 7.21875 255 255 0
-4.7056 -19.0312 7.875 255 255 0
-4.59375 -18.9021 7.21875 0 255 255
-4.59375 -18.8819 7.875 0 255 255
-4.19909 -18.375 7.21875 255 255 0
-4.21428 -18.375 7.875 255 255 0
-5.24608 -19.6875 9.1875 255 255 0
-4.72079 -19.0312 8.53125 255 255 0
-4.73938 -19.0312 9.1875 255 255 0
-4.59375 -18.8616 8.53125 0 255 255
-4.59375 -18.8345 9.1875 0 255 255
-4.22948 -18.375 8.53125 255 255 0
-4.25367 -18.375 9.1875 255 255 0
-4.85375 -19.0312 9.84375 255 255 0
-5.14159 -19.0312 10.5 255 255 0
-4.59375 -18.76 9.84375 0 255 255
-4.59375 -18.4585 10.5 0 255 255
-4.27787 -18.375 9.84375 255 255 0
-4.51376 -18.375 10.5 255 255 0
-3.9375 -18.0381 5.90625 0 255 255
-3.9375 -18.0459 6.5625 0 255 255
-3.9375 -18.0256 7.21875 0 255 255
-3.9375 -18.0053 7.875 0 255 255
-3.70848 -17.7188 5.90625 255 255 0
-3.70003 -17.7188 6.5625 255 255 0
-3.28125 -17.123 5.90625 0 255 255
-3.28125 -17.1348 6.5625 0 255 255
-3.23786 -17.0625 5.90625 255 255 0
-2.625 -17.0625 5.47527 255 0 0
-3.22942 -17.0625 6.5625 255 255 0
-3.70778 -17.7188 7.21875 255 255 0
-3.72297 -17.7188 7.875 255 255 0
-3.28125 -17.1466 7.21875 0 255 255
-3.28125 -17.1266 7.875 0 255 255
-3.22097 -17.0625 7.21875 255 255 0
-3.23384 -17.0625 7.875 255 255 0
-2.625 -16.7403 5.90625 0 255 255
-2.77203 -16.4062 6.5625 255 255 0
-2.625 -16.4062 6.25876 255 0 0
-2.625 -15.8601 6.5625 0 255 255
-2.87695 -16.4062 7.21875 255 255 0
-2.97854 -16.4062 7.875 255 255 0
-2.7057 -15.75 7.21875 255 255 0
-2.625 -15.75 6.71398 255 0 0
-2.80737 -15.75 7.875 255 255 0
-3.9375 -17.9805 8.53125 0 255 255
-3.9375 -17.9478 9.1875 0 255 255
-3.9375 -17.9151 9.84375 0 255 255
-3.9375 -17.7736 10.5 0 255 255
-3.74375 -17.7188 8.53125 255 255 0
-3.76796 -17.7188 9.1875 255 255 0
-3.28125 -17.0939 8.53125 0 255 255
-3.34546 -17.0625 9.1875 255 255 0
-3.28125 -17.0625 8.75697 255 0 0
-3.25804 -17.0625 8.53125 255 255 0
-3.79216 -17.7188 9.84375 255 255 0
-3.88498 -17.7188 10.5 255 255 0
-3.44332 -17.0625 9.84375 255 255 0
-3.52714 -17.0625 10.5 255 255 0
-3.28125 -16.8163 9.1875 0 255 255
-3.07641 -16.4062 8.53125 255 255 0
-3.17428 -16.4062 9.1875 255 255 0
-2.90524 -15.75 8.53125 255 255 0
-2.9964 -15.75 9.1875 255 255 0
-3.28125 -16.4735 9.84375 0 255 255
-3.33693 -16.4062 10.5 255 255 0
-3.28125 -16.4062 10.0138 255 0 0
-3.28125 -16.2142 10.5 0 255 255
-3.26177 -16.4062 9.84375 255 255 0
-3.07156 -15.75 9.84375 255 255 0
-3.14672 -15.75 10.5 255 255 0
-1.96875 -17.0625 5.50622 255 0 0
-1.3125 -17.0625 5.53716 255 0 0
-1.96875 -16.7634 5.90625 0 255 255
-1.96875 -16.4062 6.36614 255 0 0
-1.96875 -16.1555 6.5625 0 255 255
-1.3125 -16.7866 5.90625 0 255 255
-1.3125 -16.4062 6.41491 255 0 0
-1.3125 -16.2959 6.5625 0 255 255
-1.96875 -15.75 6.77922 255 0 0
-1.3125 -15.75 6.93538 255 0 0
-0.65625 -17.0625 5.48541 255 0 0
0 -17.0625 5.39777 255 0 0
-0.65625 -16.7365 5.90625 0 255 255
-0.65625 -16.4062 6.33265 255 0 0
-0.65625 -16.2282 6.5625 0 255 255
0 -16.6595 5.90625 0 255 255
0 -16.4062 6.23324 255 0 0
0 -16.1626 6.5625 0 255 255
-0.65625 -15.75 6.94847 255 0 0
0 -15.75 6.94817 255 0 0
-2.625 -15.4407 7.21875 0 255 255
-2.63619 -15.0938 7.875 255 255 0
-2.625 -15.0938 7.79996 255 0 0
-2.625 -15.0508 7.875 0 255 255
-2.625 -13.4769 7.875 0 255 255
-2.625 -13.3922 7.875 0 255 255
-2.73104 -15.0938 8.53125 255 255 0
-2.80619 -15.0938 9.1875 255 255 0
-2.625 -14.7279 8.53125 0 255 255
-2.625 -14.4686 9.1875 0 255 255
-2.88135 -15.0938 9.84375 255 255 0
-2.95651 -15.0938 10.5 255 255 0
-2.69114 -14.4375 9.84375 255 255 0
-2.625 -14.4375 9.26622 255 0 0
-2.8411 -14.4375 10.5 255 255 0
-3.28156 -13.125 9.1875 255 255 0
-3.28125 -13.1254 9.1875 0 255 255
-3.28125 -13.125 9.18672 255 0 0
-2.71156 -13.7812 8.53125 255 255 0
-2.625 -13.9442 8.53125 0 255 255
-2.625 -13.7812 8.21631 255 0 0
-2.87095 -13.7812 9.1875 255 255 0
-2.625 -14.2442 9.1875 0 255 255
-3.01904 -13.125 8.53125 255 255 0
-2.625 -13.125 8.0002 255 0 0
-3.39766 -13.125 9.84375 255 255 0
-3.28125 -13.2885 9.84375 0 255 255
-3.51345 -13.125 10.5 255 255 0
-3.28125 -13.4511 10.5 0 255 255
-3.01877 -13.7812 9.84375 255 255 0
-3.13198 -13.7812 10.5 255 255 0
-4.20449 -11.8125 7.875 255 255 0
-3.9375 -11.9471 7.875 0 255 255
-3.9375 -11.8125 7.85883 255 0 0
-4.59375 -11.6163 7.875 0 255 255
-4.59375 -11.1562 7.78593 255 0 0
-4.59375 -10.5 7.82378 255 0 0
-4.239 -11.1562 7.875 255 255 0
-3.9375 -11.6975 7.875 0 255 255
-4.38976 -10.5 7.875 255 255 0
-3.87238 -11.8125 7.875 255 255 0
-4.64102 -11.8125 8.53125 255 255 0
-4.59375 -11.8363 8.53125 0 255 255
-4.59375 -11.8125 8.46018 255 0 0
-4.94806 -11.8125 9.1875 255 255 0
-4.59375 -12.0072 9.1875 0 255 255
-3.9375 -12.1678 8.53125 0 255 255
-3.9375 -12.3679 9.1875 0 255 255
-5.05658 -11.8125 9.84375 255 255 0
-4.59375 -12.0669 9.84375 0 255 255
-5.16563 -11.8125 10.5 255 255 0
-4.59375 -12.1292 10.5 0 255 255
-4.00568 -12.4688 10.5 255 255 0
-3.9375 -12.5583 10.5 0 255 255
-3.9375 -12.4688 10.1496 255 0 0
-3.9375 -12.43 9.84375 0 255 255
-3.9375 -11.1562 7.9507 255 0 0
-3.9375 -10.5 7.98855 255 0 0
-3.50461 -12.4688 8.53125 255 255 0
-3.28125 -12.7674 8.53125 0 255 255
-3.28125 -12.4688 7.9576 255 0 0
-3.75425 -12.4688 9.1875 255 255 0
-3.28125 -11.8125 8.02183 255 0 0
-2.625 -12.4688 8.09252 255 0 0
-2.625 -11.8125 8.18483 255 0 0
-3.87799 -12.4688 9.84375 255 255 0
-3.28125 -11.1562 8.11546 255 0 0
-3.28125 -10.5 8.15332 255 0 0
-2.625 -11.1562 8.2779 255 0 0
-2.625 -10.5 8.31808 255 0 0
-2.53446 -15.0938 7.21875 255 255 0
-1.96875 -15.0938 7.1299 255 0 0
-1.96875 -14.9275 7.21875 0 255 255
-2.46501 -14.4375 7.875 255 255 0
-1.96875 -14.4375 7.4789 255 0 0
-1.59037 -15.0938 7.21875 255 255 0
-1.3125 -15.215 7.21875 0 255 255
-1.3125 -15.0938 7.28296 255 0 0
-1.3125 -14.4375 7.63054 255 0 0
-2.51866 -13.7812 7.875 255 255 0
-1.96875 -13.7812 7.82642 255 0 0
-1.96875 -13.6884 7.875 0 255 255
-1.75876 -13.7812 7.875 255 255 0
-1.3125 -13.9759 7.875 0 255 255
-0.65625 -15.2514 7.21875 0 255 255
-0.65625 -15.0938 7.3042 255 0 0
-0.65625 -14.4375 7.65994 255 0 0
0 -15.2509 7.21875 0 255 255
0 -15.0938 7.30392 255 0 0
0 -14.4375 7.65966 255 0 0
-0.65625 -14.0408 7.875 0 255 255
0 -14.0402 7.875 0 255 255
-2.54083 -14.4375 8.53125 255 255 0
-2.61598 -14.4375 9.1875 255 255 0
-1.96875 -13.125 8.16321 255 0 0
-1.3125 -13.7812 7.97812 255 0 0
-1.3125 -13.125 8.32475 255 0 0
-0.65625 -13.7812 8.01568 255 0 0
-0.65625 -13.125 8.35061 255 0 0
0 -13.7812 8.01539 255 0 0
0 -13.125 8.31465 255 0 0
-1.96875 -12.4688 8.25552 255 0 0
-1.96875 -11.8125 8.34784 255 0 0
-1.3125 -12.4688 8.41853 255 0 0
-1.3125 -11.8125 8.51084 255 0 0
-1.96875 -11.1562 8.44015 255 0 0
-1.96875 -10.5 8.48285 255 0 0
-1.602 -11.1562 8.53125 255 255 0
-1.3125 -11.6674 8.53125 0 255 255
-1.3125 -11.1562 8.60316 255 0 0
-1.77525 -10.5 8.53125 255 255 0
-1.3125 -10.5 8.64412 255 0 0
-0.65625 -12.4688 8.44662 255 0 0
-1.23034 -11.8125 8.53125 255 255 0
-0.65625 -11.8904 8.53125 0 255 255
-0.65625 -11.8125 8.54264 255 0 0
0 -12.4688 8.41067 255 0 0
-0.44833 -11.8125 8.53125 255 255 0
0 -11.8125 8.50668 255 0 0
-0.65625 -11.1562 8.63866 255 0 0
-0.65625 -10.5 8.69929 255 0 0
0 -11.6446 8.53125 0 255 255
0 -11.1562 8.59715 255 0 0
0 -10.5 8.65701 255 0 0
-8.53125 -18.375 10.5199 255 0 0
-7.875 -18.375 10.8738 255 0 0
-9.84375 -17.0625 10.7612 255 0 0
-9.1875 -17.7188 10.6731 255 0 0
-9.23591 -17.0625 11.1562 255 255 0
-9.1875 -17.0962 11.1562 0 255 255
-9.1875 -17.0625 11.1824 255 0 0
-9.92452 -16.4062 11.1562 255 255 0
-9.84375 -16.5007 11.1562 0 255 255
-9.84375 -16.4062 11.2227 255 0 0
-10.0261 -15.75 11.1562 255 255 0
-9.84375 -15.75 11.3115 255 0 0
-9.1875 -16.4062 11.6595 255 0 0
-9.19633 -15.75 11.8125 255 255 0
-9.1875 -16.0943 11.8125 0 255 255
-9.1875 -15.75 11.8193 255 0 0
-8.53125 -17.7188 11.028 255 0 0
-8.53125 -17.5536 11.1562 0 255 255
-8.53125 -17.0625 11.5145 255 0 0
-8.29419 -17.7188 11.1562 255 255 0
-7.875 -18.0109 11.1562 0 255 255
-7.875 -17.7188 11.3694 255 0 0
-7.875 -17.0625 11.6913 255 0 0
-8.61981 -16.4062 11.8125 255 255 0
-8.53125 -16.4549 11.8125 0 255 255
-7.875 -16.8155 11.8125 0 255 255
-8.53125 -16.4062 11.8364 255 0 0
-8.53125 -15.75 12.1583 255 0 0
-7.875 -16.4062 12.0132 255 0 0
-7.875 -15.75 12.3351 255 0 0
-7.21875 -19.0312 10.682 255 0 0
-7.35246 -18.375 11.1562 255 255 0
-7.21875 -18.4682 11.1562 0 255 255
-7.21875 -18.375 11.2244 255 0 0
-6.5625 -19.0312 11.0785 255 0 0
-6.5625 -18.9577 11.1562 0 255 255
-6.5625 -18.375 11.7361 255 0 0
-5.90625 -19.6875 10.6309 255 0 0
-6.46844 -19.0312 11.1562 255 255 0
-5.90625 -19.4699 11.1562 0 255 255
-5.90625 -19.0312 11.5735 255 0 0
-6.46423 -18.375 11.8125 255 255 0
-5.90625 -18.6934 11.8125 0 255 255
-5.25 -19.1498 11.1562 0 255 255
-5.25 -19.0312 11.357 255 0 0
-5.25 -18.7146 11.8125 0 255 255
-5.90625 -18.375 12.0377 255 0 0
-5.25 -18.375 12.1316 255 0 0
-7.21875 -17.7188 11.5463 255 0 0
-7.42538 -17.0625 11.8125 255 255 0
-7.21875 -17.2346 11.8125 0 255 255
-6.9709 -17.7188 11.8125 255 255 0
-6.5625 -18.297 11.8125 0 255 255
-7.21875 -17.0625 11.9178 255 0 0
-6.5625 -17.7188 12.2248 255 0 0
-6.62405 -17.0625 12.4688 255 255 0
-6.5625 -17.1408 12.4688 0 255 255
-6.5625 -17.0625 12.5018 255 0 0
-7.21875 -16.4062 12.3196 255 0 0
-7.42998 -15.75 12.4688 255 255 0
-7.21875 -16.1626 12.4688 0 255 255
-7.21875 -15.75 12.7035 255 0 0
-7.09404 -16.4062 12.4688 255 255 0
-6.5625 -16.4062 12.7788 255 0 0
-6.5625 -15.75 13.0522 255 0 0
-6.00889 -17.7188 12.4688 255 255 0
-5.90625 -17.7656 12.4688 0 255 255
-5.90625 -17.7188 12.5019 255 0 0
-5.90625 -17.0625 12.8542 255 0 0
-5.25 -17.9258 12.4688 0 255 255
-5.25 -17.7188 12.6242 255 0 0
-5.25 -17.0625 13.0723 255 0 0
-5.90625 -16.4062 13.1052 255 0 0
-6.35803 -15.75 13.125 255 255 0
-5.90625 -16.3345 13.125 0 255 255
-5.8508 -16.4062 13.125 255 255 0
-5.25 -16.927 13.125 0 255 255
-5.90625 -15.75 13.2859 255 0 0
-5.25 -16.4062 13.3261 255 0 0
-5.25 -15.75 13.5072 255 0 0
-10.0988 -15.0938 11.1562 255 255 0
-9.84375 -15.0938 11.3245 255 0 0
-10.1287 -14.4375 11.1562 255 255 0
-9.84375 -14.4375 11.5541 255 0 0
-9.19405 -15.0938 11.8125 255 255 0
-9.45235 -14.4375 11.8125 255 255 0
-9.1875 -15.0938 11.8175 255 0 0
-9.1875 -14.4375 11.9873 255 0 0
-10.0091 -13.7812 11.1562 255 255 0
-9.84375 -13.7812 11.4268 255 0 0
-9.84375 -13.1746 11.1562 0 255 255
-9.84375 -13.125 11.1263 255 0 0
-9.47142 -13.7812 11.8125 255 255 0
-9.82615 -13.125 11.1562 255 255 0
-9.42528 -13.125 11.8125 255 255 0
-9.1875 -13.7812 11.9999 255 0 0
-9.1875 -13.125 12.0507 255 0 0
-8.53125 -15.0938 12.3218 255 0 0
-8.53125 -14.4375 12.4206 255 0 0
-8.33996 -15.0938 12.4688 255 255 0
-7.875 -15.4776 12.4688 0 255 255
-7.875 -15.0938 12.657 255 0 0
-8.4583 -14.4375 12.4688 255 255 0
-7.875 -14.4375 12.8538 255 0 0
-8.53125 -13.7812 12.4429 255 0 0
-8.63416 -13.125 12.4688 255 255 0
-8.53125 -13.6176 12.4688 0 255 255
-8.53125 -13.125 12.5465 255 0 0
-8.49706 -13.7812 12.4688 255 255 0
-7.875 -13.7812 12.9387 255 0 0
-7.875 -13.125 13.0423 255 0 0
-9.84375 -12.4688 10.7307 255 0 0
-9.59347 -12.4688 11.1562 255 255 0
-9.1875 -12.7114 11.8125 0 255 255
-9.1875 -12.4688 11.6448 255 0 0
-9.21663 -11.8125 11.1562 255 255 0
-9.1875 -11.8125 11.1913 255 0 0
-9.1875 -11.7618 11.1562 0 255 255
-9.048 -12.4688 11.8125 255 255 0
-8.67066 -11.8125 11.8125 255 255 0
-8.53125 -12.5457 12.4688 0 255 255
-8.53125 -12.4688 12.417 255 0 0
-8.53125 -11.8125 11.9755 255 0 0
-8.48698 -12.4688 12.4688 255 255 0
-7.90261 -12.4688 13.125 255 255 0
-7.875 -12.6009 13.125 0 255 255
-8.10947 -11.8125 12.4688 255 255 0
-7.875 -12.3805 13.125 0 255 255
-7.875 -11.8125 12.7429 255 0 0
-8.53125 -11.2147 11.1562 0 255 255
-8.53125 -11.5701 11.8125 0 255 255
-8.53125 -11.1562 11.5266 255 0 0
-8.53125 -11.1562 11.2782 255 0 0
-8.34218 -11.1562 11.1562 255 255 0
-7.875 -11.1562 10.8549 255 0 0
-8.29316 -11.1562 11.8125 255 255 0
-7.875 -11.0185 11.1562 0 255 255
-7.875 -10.8208 11.8125 0 255 255
-7.875 -11.4317 12.4688 0 255 255
-7.875 -11.1562 12.2614 255 0 0
-7.875 -12.4688 13.1459 255 0 0
-7.21875 -15.0938 12.9805 255 0 0
-7.33879 -14.4375 13.125 255 255 0
-7.21875 -14.6364 13.125 0 255 255
-6.86525 -15.0938 13.125 255 255 0
-6.5625 -15.4855 13.125 0 255 255
-7.60616 -13.7812 13.125 255 255 0
-7.76552 -13.125 13.125 255 255 0
-7.21875 -14.4375 13.1662 255 0 0
-6.5625 -15.0938 13.2328 255 0 0
-6.5625 -14.4375 13.3911 255 0 0
-7.21875 -13.7812 13.2443 255 0 0
-7.21875 -13.125 13.3342 255 0 0
-6.5625 -13.7812 13.454 255 0 0
-6.5625 -13.125 13.5363 255 0 0
-5.90625 -15.0938 13.4666 255 0 0
-5.90625 -14.4375 13.6161 255 0 0
-5.25 -15.0938 13.6883 255 0 0
-5.42697 -14.4375 13.7812 255 255 0
-5.25 -14.7567 13.7812 0 255 255
-5.25 -14.4375 13.8443 255 0 0
-5.90625 -13.7812 13.679 255 0 0
-5.90625 -13.125 13.7419 255 0 0
-5.60903 -13.7812 13.7812 255 255 0
-5.25 -13.7812 13.9092 255 0 0
-5.79143 -13.125 13.7812 255 255 0
-5.33397 -13.125 13.7812 255 255 0
-5.25 -13.1564 13.7812 0 255 255
-5.25 -13.125 13.7717 255 0 0
-7.21875 -11.9019 13.125 0 255 255
-7.21875 -11.8125 13.075 255 0 0
-6.82724 -11.8125 13.125 255 255 0
-7.30891 -11.1562 11.1562 255 255 0
-7.21875 -11.1738 11.1562 0 255 255
-7.21875 -11.1562 11.2161 255 0 0
-7.21875 -10.9816 11.8125 0 255 255
-6.5625 -11.3067 11.1562 0 255 255
-6.5625 -11.1562 11.656 255 0 0
-6.5625 -11.1091 11.8125 0 255 255
-7.62675 -11.1562 12.4688 255 255 0
-7.21875 -11.1562 12.7082 255 0 0
-7.21875 -10.7894 12.4688 0 255 255
-6.5625 -11.7563 13.125 0 255 255
-6.5625 -11.1562 12.8149 255 0 0
-6.5625 -10.9169 12.4688 0 255 255
-5.25 -11.8125 11.0616 255 0 0
-5.25 -11.8125 10.9891 255 0 0
-5.90625 -11.4432 11.1562 0 255 255
-6.33595 -11.1562 11.8125 255 255 0
-5.90625 -11.2456 11.8125 0 255 255
-5.25 -11.791 11.1562 0 255 255
-5.25 -11.6418 11.8125 0 255 255
-5.90625 -11.1562 12.1093 255 0 0
-5.90625 -11.6205 13.125 0 255 255
-5.90625 -11.1562 12.8959 255 0 0
-5.90625 -11.0552 12.4688 0 255 255
-5.7546 -11.1562 12.4688 255 255 0
-5.25 -11.4892 12.4688 0 255 255
-5.25 -11.6315 13.125 0 255 255
-7.21875 -12.4688 13.403 255 0 0
-6.5625 -12.4688 13.4705 255 0 0
-6.5625 -11.8125 13.1522 255 0 0
-5.90625 -12.4688 13.5381 255 0 0
-5.90625 -11.8125 13.2198 255 0 0
-5.25 -12.4688 13.5382 255 0 0
-5.25 -11.8125 13.2143 255 0 0
-5.16267 -19.0312 11.1562 255 255 0
-4.67891 -18.375 11.1562 255 255 0
-4.59375 -18.375 10.6833 255 0 0
-4.75573 -18.375 11.8125 255 255 0
-4.59375 -18.2596 11.1562 0 255 255
-4.59375 -18.2335 11.8125 0 255 255
-4.17135 -17.7188 11.1562 255 255 0
-3.9375 -17.7188 10.6204 255 0 0
-4.21444 -17.7188 11.8125 255 255 0
-3.9375 -17.4747 11.1562 0 255 255
-3.9375 -17.3429 11.8125 0 255 255
-4.59375 -17.8572 12.4688 0 255 255
-4.59375 -17.7188 12.6423 255 0 0
-4.59375 -17.0625 13.0238 255 0 0
-4.41703 -17.7188 12.4688 255 255 0
-3.9375 -17.3172 12.4688 0 255 255
-3.9375 -17.0625 12.7029 255 0 0
-4.59375 -16.8024 13.125 0 255 255
-4.05622 -16.4062 13.125 255 255 0
-3.9375 -16.4062 13.0269 255 0 0
-3.9375 -16.2077 13.125 0 255 255
-3.75158 -17.0625 11.1562 255 255 0
-3.84496 -17.0625 11.8125 255 255 0
-3.82869 -17.0625 12.4688 255 255 0
-3.5418 -16.4062 11.1562 255 255 0
-3.6675 -16.4062 11.8125 255 255 0
-3.33192 -15.75 11.1562 255 255 0
-3.28125 -15.75 11.009 255 0 0
-3.49003 -15.75 11.8125 255 255 0
-3.65973 -16.4062 12.4688 255 255 0
-3.49439 -15.75 12.4688 255 255 0
-3.67846 -15.75 13.125 255 255 0
-4.59375 -16.4062 13.279 255 0 0
-4.59375 -15.75 13.5342 255 0 0
-3.9375 -15.75 13.351 255 0 0
-3.28125 -15.5916 11.1562 0 255 255
-3.31257 -15.0938 11.8125 255 255 0
-3.28125 -15.0938 11.62 255 0 0
-3.28125 -14.9779 11.8125 0 255 255
-3.12195 -15.0938 11.1562 255 255 0
-2.98325 -14.4375 11.1562 255 255 0
-3.16607 -14.4375 11.8125 255 255 0
-3.32905 -15.0938 12.4688 255 255 0
-3.35588 -15.0938 13.125 255 255 0
-3.28125 -14.904 12.4688 0 255 255
-3.28125 -14.7975 13.125 0 255 255
-3.16371 -14.4375 12.4688 255 255 0
-3.19054 -14.4375 13.125 255 255 0
-3.37829 -13.7812 11.8125 255 255 0
-3.28125 -14.0851 11.8125 0 255 255
-3.28125 -13.7812 11.3653 255 0 0
-3.63377 -13.125 11.1562 255 255 0
-3.28125 -13.6974 11.1562 0 255 255
-3.73955 -13.125 11.8125 255 255 0
-3.24519 -13.7812 11.1562 255 255 0
-3.34429 -13.7812 12.4688 255 255 0
-3.28125 -13.9544 12.4688 0 255 255
-3.30005 -13.7812 13.125 255 255 0
-3.28125 -13.8246 13.125 0 255 255
-3.66885 -13.125 12.4688 255 255 0
-3.59072 -13.125 13.125 255 255 0
-4.93457 -15.0938 13.7812 255 255 0
-4.59375 -15.1147 13.7812 0 255 255
-4.59375 -15.0938 13.7894 255 0 0
-4.59375 -14.4375 14.0404 255 0 0
-4.53753 -15.0938 13.7812 255 255 0
-3.9375 -15.0938 13.6034 255 0 0
-3.9375 -14.6126 13.7812 0 255 255
-3.9375 -14.4375 13.7825 255 0 0
-4.59375 -13.7812 13.8971 255 0 0
-4.59375 -13.402 13.7812 0 255 255
-4.59375 -13.125 13.6967 255 0 0
-4.01893 -13.7812 13.7812 255 255 0
-3.9375 -14.418 13.7812 0 255 255
-3.9375 -13.7812 13.7454 255 0 0
-3.9375 -13.125 13.6217 255 0 0
-3.93464 -14.4375 13.7812 255 255 0
-3.28125 -14.4375 13.4052 255 0 0
-3.28125 -13.7812 13.4259 255 0 0
-3.28125 -13.7812 13.4563 255 0 0
-5.21772 -11.8125 11.1562 255 255 0
-4.59375 -12.1919 11.1562 0 255 255
-4.99385 -11.8125 11.8125 255 255 0
-4.59375 -12.0777 11.8125 0 255 255
-4.13337 -12.4688 11.1562 255 255 0
-3.9375 -12.726 11.1562 0 255 255
-4.1458 -12.4688 11.8125 255 255 0
-3.9375 -12.8052 11.8125 0 255 255
-4.7572 -11.8125 12.4688 255 255 0
-4.59375 -11.9197 12.4688 0 255 255
-4.59375 -11.8125 12.9142 255 0 0
-4.07955 -12.4688 12.4688 255 255 0
-3.9375 -12.6982 12.4688 0 255 255
-4.00674 -12.4688 13.125 255 255 0
-3.9375 -12.578 13.125 0 255 255
-4.5164 -11.8125 13.125 255 255 0
-4.59375 -11.7618 13.125 0 255 255
-4.59375 -12.4688 13.473 255 0 0
-4.59375 -11.8125 13.2089 255 0 0
-10.4696 -9.84375 0.65625 255 255 0
-10.4247 -9.84375 1.3125 255 255 0
-10.3545 -9.1875 0.65625 255 255 0
-10.3097 -9.1875 1.3125 255 255 0
-10.3799 -9.84375 1.96875 255 255 0
-10.1338 -9.84375 2.625 255 255 0
-10.2649 -9.1875 1.96875 255 255 0
-10.0858 -9.1875 2.625 255 255 0
-10.2395 -8.53125 0.65625 255 255 0
-10.1947 -8.53125 1.3125 255 255 0
-10.135 -7.875 0.65625 255 255 0
-10.0797 -7.875 1.3125 255 255 0
-10.1499 -8.53125 1.96875 255 255 0
-10.0339 -8.53125 2.625 255 255 0
-10.0348 -7.875 1.96875 255 255 0
-9.97426 -7.875 2.625 255 255 0
-9.84375 -10.4471 3.28125 0 255 255
-9.84375 -9.84375 3.19449 255 0 0
-9.84375 -9.1875 3.10013 255 0 0
-9.79956 -9.84375 3.28125 255 255 0
-9.46519 -9.84375 3.9375 255 255 0
-9.75149 -9.1875 3.28125 255 255 0
-9.4105 -9.1875 3.9375 255 255 0
-9.1875 -9.84375 4.45723 255 0 0
-9.1875 -9.1875 4.35486 255 0 0
-9.84375 -8.53125 3.00577 255 0 0
-9.84375 -7.875 2.9114 255 0 0
-9.70343 -8.53125 3.28125 255 255 0
-9.3558 -8.53125 3.9375 255 255 0
-9.65174 -7.875 3.28125 255 255 0
-9.3011 -7.875 3.9375 255 255 0
-9.1875 -8.53125 4.25249 255 0 0
-9.1875 -7.875 4.15012 255 0 0
-9.0555 -9.84375 4.59375 255 255 0
-8.53125 -9.84375 5.07124 255 0 0
-9.03976 -9.1875 4.59375 255 255 0
-8.53125 -9.1875 5.0569 255 0 0
-8.33498 -9.84375 5.25 255 255 0
-8.31924 -9.1875 5.25 255 255 0
-9.00516 -8.53125 4.59375 255 255 0
-8.53125 -8.53125 5.04256 255 0 0
-8.95047 -7.875 4.59375 255 255 0
-8.53125 -7.875 5.02823 255 0 0
-8.3035 -8.53125 5.25 255 255 0
-8.28779 -7.875 5.25 255 255 0
-10.0466 -7.21875 0.65625 255 255 0
-9.98862 -7.21875 1.3125 255 255 0
-9.9127 -6.5625 0.65625 255 255 0
-9.84375 -6.61955 1.3125 0 255 255
-9.84375 -6.5625 1.12964 255 0 0
-9.81711 -6.5625 1.3125 255 255 0
-9.93067 -7.21875 1.96875 255 255 0
-9.875 -7.21875 2.625 255 255 0
-9.84375 -6.82429 1.96875 0 255 255
-9.84375 -7.02904 2.625 0 255 255
-9.72153 -6.5625 1.96875 255 255 0
-9.62594 -6.5625 2.625 255 255 0
-10.4197 -5.90625 0.65625 255 255 0
-10.0642 -5.90625 1.3125 255 255 0
-9.84375 -6.10603 1.3125 0 255 255
-9.84375 -5.90625 1.67795 255 0 0
-10.3926 -5.25 1.96875 255 255 0
-9.84375 -5.74728 1.96875 0 255 255
-9.98454 -5.25 2.625 255 255 0
-9.84375 -5.38015 2.625 0 255 255
-9.6683 -5.90625 1.96875 255 255 0
-9.31956 -5.90625 2.625 255 255 0
-9.84375 -7.21875 2.81704 255 0 0
-9.59704 -7.21875 3.28125 255 255 0
-9.2464 -7.21875 3.9375 255 255 0
-9.33085 -6.5625 3.28125 255 255 0
-9.1875 -6.9455 3.9375 0 255 255
-9.1875 -6.5625 3.55781 255 0 0
-9.1875 -7.21875 4.04775 255 0 0
-9.84375 -5.25 2.73273 255 0 0
-9.1875 -6.28352 3.28125 0 255 255
-9.1875 -5.90625 2.91109 255 0 0
-9.1875 -5.25 3.0507 255 0 0
-8.9907 -6.5625 3.9375 255 255 0
-8.89577 -7.21875 4.59375 255 255 0
-8.53125 -7.21875 5.0126 255 0 0
-8.65627 -6.5625 4.59375 255 255 0
-8.53125 -6.5625 4.79821 255 0 0
-8.26668 -7.21875 5.25 255 255 0
-7.98118 -6.5625 5.25 255 255 0
-8.9998 -5.90625 3.28125 255 255 0
-8.66702 -5.90625 3.9375 255 255 0
-8.73274 -5.25 3.28125 255 255 0
-8.53125 -5.63068 3.9375 0 255 255
-8.53125 -5.25 3.56763 255 0 0
-8.34248 -5.25 3.9375 255 255 0
-8.53125 -6.32303 4.59375 0 255 255
-8.53125 -5.90625 4.20525 255 0 0
-8.31367 -5.90625 4.59375 255 255 0
-7.875 -6.36184 5.25 0 255 255
-7.875 -5.90625 5.05199 255 0 0
-7.97108 -5.25 4.59375 255 255 0
-7.875 -5.25 4.76352 255 0 0
-7.63392 -5.90625 5.25 255 255 0
-7.28666 -5.25 5.25 255 255 0
-7.875 -9.84375 5.66896 255 0 0
-7.875 -9.1875 5.65462 255 0 0
-7.875 -8.53125 5.64037 255 0 0
-7.875 -7.875 5.62167 255 0 0
-7.875 -7.21875 5.60145 255 0 0
-7.875 -6.5625 5.33721 255 0 0
-7.61447 -9.84375 5.90625 255 255 0
-7.21875 -9.84375 6.26675 255 0 0
-7.59877 -9.1875 5.90625 255 255 0
-7.21875 -9.1875 6.25097 255 0 0
-6.8941 -9.84375 6.5625 255 255 0
-6.87156 -9.1875 6.5625 255 255 0
-6.5625 -9.84375 6.86004 255 0 0
-6.5625 -9.1875 6.83982 255 0 0
-7.58039 -8.53125 5.90625 255 255 0
-7.21875 -8.53125 6.23075 255 0 0
-7.55785 -7.875 5.90625 255 255 0
-7.21875 -7.875 6.21052 255 0 0
-6.84902 -8.53125 6.5625 255 255 0
-6.82649 -7.875 6.5625 255 255 0
-6.5625 -8.53125 6.8196 255 0 0
-6.5625 -7.875 6.79937 255 0 0
-6.16273 -9.84375 7.21875 255 255 0
-5.90625 -9.84375 7.44889 255 0 0
-6.1402 -9.1875 7.21875 255 255 0
-5.90625 -9.1875 7.42867 255 0 0
-5.25 -9.84375 7.69687 255 0 0
-5.25 -9.1875 7.73472 255 0 0
-6.11766 -8.53125 7.21875 255 255 0
-5.90625 -8.53125 7.40845 255 0 0
-6.09512 -7.875 7.21875 255 255 0
-5.90625 -7.875 7.38823 255 0 0
-5.25 -8.53125 7.77257 255 0 0
-5.25 -7.875 7.81042 255 0 0
-7.52944 -7.21875 5.90625 255 255 0
-7.21875 -7.21875 6.16143 255 0 0
-7.21875 -6.63161 5.90625 0 255 255
-7.21875 -6.5625 5.87621 255 0 0
-6.73044 -7.21875 6.5625 255 255 0
-7.18218 -6.5625 5.90625 255 255 0
-6.5625 -6.90138 6.5625 0 255 255
-6.5625 -6.5625 6.41521 255 0 0
-6.5625 -7.21875 6.70044 255 0 0
-7.21875 -5.90625 5.59099 255 0 0
-7.21875 -5.25 5.30577 255 0 0
-6.83492 -5.90625 5.90625 255 255 0
-6.5625 -5.90625 6.12999 255 0 0
-6.5625 -5.39145 5.90625 0 255 255
-6.5625 -5.25 5.84477 255 0 0
-6.38318 -6.5625 6.5625 255 255 0
-5.93144 -7.21875 7.21875 255 255 0
-5.90625 -7.21875 7.23944 255 0 0
-5.90625 -7.17115 7.21875 0 255 255
-5.90625 -6.5625 6.95422 255 0 0
-5.25 -7.21875 7.7358 255 0 0
-5.56678 -6.5625 7.21875 255 255 0
-5.25 -6.5625 7.46194 255 0 0
-6.03445 -5.90625 6.5625 255 255 0
-6.48765 -5.25 5.90625 255 255 0
-5.90625 -5.68895 6.5625 0 255 255
-5.90625 -5.25 6.36369 255 0 0
-5.64728 -5.25 6.5625 255 255 0
-5.90625 -5.90625 6.66092 255 0 0
-5.25 -6.02555 7.21875 0 255 255
-5.25 -5.90625 7.16472 255 0 0
-5.25 -5.25 6.86749 255 0 0
-9.84375 -4.59375 3.0913 255 0 0
-10.1958 -3.9375 3.28125 255 255 0
-9.84375 -4.2461 3.28125 0 255 255
-9.84375 -3.9375 3.44986 255 0 0
-9.44721 -4.59375 3.28125 255 255 0
-9.1875 -4.82877 3.28125 0 255 255
-9.1875 -4.59375 3.40988 255 0 0
-9.1875 -3.9375 3.73315 255 0 0
-9.84375 -3.28125 3.60999 255 0 0
-9.84375 -2.625 3.55485 255 0 0
-9.1875 -3.28125 3.71717 255 0 0
-9.1875 -2.625 3.66506 255 0 0
-8.53125 -4.59375 3.72915 255 0 0
-8.53125 -3.9375 3.74634 255 0 0
-7.99988 -4.59375 3.9375 255 255 0
-7.875 -4.36033 3.9375 0 255 255
-7.875 -3.9375 3.75952 255 0 0
-7.875 -5.06596 4.59375 0 255 255
-7.875 -4.59375 4.15816 255 0 0
-8.53125 -3.28125 3.75925 255 0 0
-8.53125 -2.625 3.76778 255 0 0
-7.875 -3.28125 3.77491 255 0 0
-7.875 -2.625 3.67291 255 0 0
-9.84375 -0.491364 2.625 0 255 255
-9.84375 0 2.4057 255 0 0
-9.54023 -0.65625 2.625 255 255 0
-9.1875 -0.74829 2.625 0 255 255
-9.1875 -0.65625 2.56216 255 0 0
-9.1875 0 2.14869 255 0 0
-8.53125 -0.761614 2.625 0 255 255
-8.53125 -0.65625 2.55417 255 0 0
-8.6537 0 1.96875 255 255 0
-8.53125 -0.00493217 1.96875 0 255 255
-8.53125 0 1.96356 255 0 0
-7.875 -0.749052 2.625 0 255 255
-7.875 -0.65625 2.56261 255 0 0
-7.875 -0.0271628 1.96875 0 255 255
-7.875 0 1.94086 255 0 0
-9.84375 -1.96875 3.48282 255 0 0
-9.84375 -1.67352 3.28125 0 255 255
-9.84375 -1.3125 3.03475 255 0 0
-9.1875 -1.96875 3.4583 255 0 0
-9.1875 -1.70944 3.28125 0 255 255
-9.1875 -1.3125 3.01023 255 0 0
-9.84375 -0.65625 2.69859 255 0 0
-8.53125 -1.96875 3.43648 255 0 0
-8.53125 -1.73783 3.28125 0 255 255
-8.53125 -1.3125 2.99533 255 0 0
-7.875 -1.96875 3.41703 255 0 0
-7.875 -1.72527 3.28125 0 255 255
-7.875 -1.3125 3.00377 255 0 0
-7.64806 -3.9375 3.9375 255 255 0
-7.62849 -4.59375 4.59375 255 255 0
-7.21875 -5.12167 5.25 0 255 255
-7.21875 -4.59375 5.02055 255 0 0
-7.28589 -3.9375 4.59375 255 255 0
-7.21875 -3.9375 4.71239 255 0 0
-6.93939 -4.59375 5.25 255 255 0
-6.58261 -3.9375 5.25 255 255 0
-7.2876 -3.28125 3.9375 255 255 0
-7.21875 -3.22429 3.9375 0 255 255
-7.21875 -2.625 3.50156 255 0 0
-6.5625 -2.68132 3.9375 0 255 255
-6.5625 -2.625 3.82904 255 0 0
-7.21875 -3.80889 4.59375 0 255 255
-7.21875 -3.28125 4.04721 255 0 0
-6.87578 -3.28125 4.59375 255 255 0
-6.5625 -3.90342 5.25 0 255 255
-6.5625 -3.28125 4.86535 255 0 0
-6.5625 -3.0511 4.59375 0 255 255
-6.49444 -2.625 3.9375 255 255 0
-5.94862 -3.28125 5.25 255 255 0
-5.91709 -2.625 4.59375 255 255 0
-5.90625 -3.25262 5.25 0 255 255
-5.90625 -2.625 4.60382 255 0 0
-5.25 -2.80924 5.25 0 255 255
-5.25 -2.625 5.07914 255 0 0
-7.21875 -0.736491 2.625 0 255 255
-7.21875 -0.65625 2.57106 255 0 0
-7.21875 -0.0477834 1.96875 0 255 255
-7.21875 0 1.89881 255 0 0
-6.5625 -0.831503 2.625 0 255 255
-6.5625 -0.65625 2.5032 255 0 0
-6.5625 -0.0744436 1.96875 0 255 255
-6.5625 0 1.74475 255 0 0
-5.8673 -1.3125 2.625 255 255 0
-5.75032 -1.3125 2.625 255 255 0
-6.36395 0 1.3125 255 255 0
-5.90625 -0.304679 1.3125 0 255 255
-5.90625 0 0.71465 255 0 0
-5.70416 0 0.65625 255 255 0
-5.55691 0 0.65625 255 255 0
-5.34664 0 1.3125 255 255 0
-5.90625 -1.28328 2.625 0 255 255
-5.90625 -0.65625 2.05673 255 0 0
-5.90625 -0.552261 1.96875 0 255 255
-5.77692 -0.65625 1.96875 255 255 0
-5.50691 -0.65625 1.96875 255 255 0
-5.25 -0.67256 2.625 0 255 255
-5.25 -0.65625 2.60106 255 0 0
-5.25 -0.236779 1.96875 0 255 255
-5.25 0 1.61132 255 0 0
-7.32646 -1.96875 3.28125 255 255 0
-7.21875 -2.03989 3.28125 0 255 255
-7.21875 -1.96875 3.25447 255 0 0
-7.21875 -1.3125 2.98502 255 0 0
-6.5625 -2.34058 3.28125 0 255 255
-6.5625 -1.96875 3.08311 255 0 0
-6.5625 -1.3125 2.82258 255 0 0
-6.1148 -1.96875 3.28125 255 255 0
-5.90625 -2.15181 3.9375 0 255 255
-5.90625 -1.96875 3.66751 255 0 0
-5.90625 -1.78207 3.28125 0 255 255
-5.90625 -1.3125 2.65152 255 0 0
-5.62896 -1.96875 3.9375 255 255 0
-5.34083 -1.3125 3.28125 255 255 0
-5.25 -1.71856 3.9375 0 255 255
-5.25 -1.3125 3.3657 255 0 0
-5.90625 -2.61785 4.59375 0 255 255
-5.25 -2.1846 4.59375 0 255 255
-5.25 -1.96875 4.2898 255 0 0
-5.25 -1.23804 3.28125 0 255 255
-6.5625 -4.59375 5.55955 255 0 0
-6.5625 -3.9375 5.26544 255 0 0
-6.11495 -4.59375 5.90625 255 255 0
-5.90625 -4.59375 6.06646 255 0 0
-5.90625 -4.24001 5.90625 0 255 255
-5.90625 -3.9375 5.76924 255 0 0
-5.26012 -4.59375 6.5625 255 255 0
-5.72778 -3.9375 5.90625 255 255 0
-5.25 -4.5766 6.5625 0 255 255
-5.25 -3.9375 6.27304 255 0 0
-5.25 -4.59375 6.57027 255 0 0
-5.90625 -3.28125 5.27655 255 0 0
-5.25 -3.51685 5.90625 0 255 255
-5.25 -3.28125 5.68775 255 0 0
-4.59375 -9.84375 7.86164 255 0 0
-4.69128 -9.1875 7.875 255 255 0
-4.59375 -9.61203 7.875 0 255 255
-4.54052 -9.84375 7.875 255 255 0
-4.84203 -8.53125 7.875 255 255 0
-4.9883 -7.875 7.875 255 255 0
-4.59375 -9.1875 7.89949 255 0 0
-3.9375 -9.84375 8.0264 255 0 0
-3.9375 -9.1875 8.06425 255 0 0
-4.59375 -8.53125 7.93734 255 0 0
-4.59375 -7.875 7.97124 255 0 0
-3.9375 -8.53125 8.09944 255 0 0
-3.9375 -7.875 8.13131 255 0 0
-3.28125 -9.84375 8.19117 255 0 0
-3.28125 -9.1875 8.22764 255 0 0
-2.625 -9.84375 8.35585 255 0 0
-2.625 -9.1875 8.38772 255 0 0
-3.28125 -8.53125 8.25952 255 0 0
-3.28125 -7.875 8.29139 255 0 0
-2.625 -8.53125 8.41959 255 0 0
-2.625 -7.875 8.45146 255 0 0
-4.63664 -7.21875 7.875 255 255 0
-4.59375 -7.17242 7.875 0 255 255
-4.59375 -6.5625 7.74684 255 0 0
-4.02906 -6.5625 7.875 255 255 0
-5.17962 -5.90625 7.21875 255 255 0
-4.59375 -5.90625 7.60895 255 0 0
-4.79245 -5.25 7.21875 255 255 0
-4.59375 -5.25 7.37129 255 0 0
-3.9375 -6.46361 7.875 0 255 255
-3.9375 -5.90625 7.75789 255 0 0
-3.9375 -5.25 7.62 255 0 0
-3.42147 -5.90625 7.875 255 255 0
-3.28125 -5.7548 7.875 0 255 255
-3.28125 -5.25 7.76893 255 0 0
-2.75901 -5.25 7.875 255 255 0
-4.59375 -7.21875 7.88473 255 0 0
-3.9375 -7.21875 8.03367 255 0 0
-3.9375 -6.5625 7.89578 255 0 0
-3.28125 -7.21875 8.1826 255 0 0
-3.28125 -6.5625 8.04471 255 0 0
-2.625 -7.21875 8.33154 255 0 0
-2.625 -6.5625 8.19365 255 0 0
-3.28125 -5.90625 7.90682 255 0 0
-2.625 -5.90625 8.05576 255 0 0
-2.625 -5.25 7.9002 255 0 0
-1.96875 -9.84375 8.51592 255 0 0
-2.03657 -9.1875 8.53125 255 255 0
-1.96875 -9.52813 8.53125 0 255 255
-1.96875 -9.1875 8.54779 255 0 0
-1.90591 -9.84375 8.53125 255 255 0
-1.3125 -9.84375 8.676 255 0 0
-1.3125 -9.1875 8.70787 255 0 0
-2.16723 -8.53125 8.53125 255 255 0
-1.96875 -8.53125 8.57966 255 0 0
-2.29789 -7.875 8.53125 255 255 0
-1.96875 -7.875 8.61154 255 0 0
-1.3125 -8.53125 8.73974 255 0 0
-1.3125 -7.875 8.7673 255 0 0
-0.65625 -9.84375 8.75915 255 0 0
-0.65625 -9.1875 8.81902 255 0 0
0 -9.84375 8.71687 255 0 0
0 -9.1875 8.77674 255 0 0
-0.65625 -8.53125 8.87888 255 0 0
-0.65625 -7.875 8.91465 255 0 0
0 -8.53125 8.8366 255 0 0
0 -7.875 8.86226 255 0 0
-1.96875 -7.46042 8.53125 0 255 255
-1.96875 -7.21875 8.48047 255 0 0
-1.96875 -6.5625 8.34258 255 0 0
-1.74501 -7.21875 8.53125 255 255 0
-1.3125 -7.21875 8.62941 255 0 0
-1.3125 -6.81564 8.53125 0 255 255
-1.3125 -6.5625 8.46912 255 0 0
-1.96875 -5.90625 8.18466 255 0 0
-1.96875 -5.25 8.02359 255 0 0
-1.3125 -5.90625 8.30805 255 0 0
-1.3125 -5.25 8.14697 255 0 0
-0.65625 -7.21875 8.75358 255 0 0
-0.982049 -6.5625 8.53125 255 255 0
-0.65625 -6.5625 8.59251 255 0 0
0 -7.21875 8.76489 255 0 0
0 -6.5625 8.66751 255 0 0
-0.65625 -6.31292 8.53125 0 255 255
-0.65625 -5.90625 8.43144 255 0 0
-0.65625 -5.25 8.27036 255 0 0
-0.125383 -5.90625 8.53125 255 255 0
0 -5.90625 8.55482 255 0 0
0 -5.8102 8.53125 0 255 255
0 -5.25 8.39375 255 0 0
-4.97732 -2.625 5.25 255 255 0
-5.23951 -0.65625 2.625 255 255 0
-5.10492 0 1.96875 255 255 0
-4.8173 0 2.625 255 255 0
-4.63493 -1.3125 3.9375 255 255 0
-4.92306 -1.96875 4.59375 255 255 0
-4.59375 -2.36585 5.25 0 255 255
-4.59375 -1.96875 4.88173 255 0 0
-4.59375 -1.75135 4.59375 0 255 255
-4.59375 -1.3125 3.97578 255 0 0
-4.00602 -1.96875 5.25 255 255 0
-3.9375 -1.3181 4.59375 0 255 255
-3.9375 -1.3125 4.58587 255 0 0
-3.9375 -1.92246 5.25 0 255 255
-4.73017 -0.65625 3.28125 255 255 0
-4.59375 -1.28531 3.9375 0 255 255
-4.59375 -0.65625 3.4023 255 0 0
-4.59375 -0.502033 3.28125 0 255 255
-4.59375 0 2.88896 255 0 0
-4.01788 -0.65625 3.9375 255 255 0
-4.14965 0 3.28125 255 255 0
-3.9375 -0.567348 3.9375 0 255 255
-3.9375 0 3.46865 255 0 0
-3.9375 -0.65625 4.0122 255 0 0
-3.92902 -1.3125 4.59375 255 255 0
-3.28125 -1.5634 5.25 0 255 255
-3.28125 -1.3125 5.02618 255 0 0
-2.68258 -1.3125 5.25 255 255 0
-3.42456 0 3.9375 255 255 0
-3.28125 -0.691052 4.59375 0 255 255
-3.28125 -0.65625 4.57043 255 0 0
-3.28125 0 4.07069 255 0 0
-3.21404 -0.65625 4.59375 255 255 0
-2.625 -1.28837 5.25 0 255 255
-2.625 -0.65625 4.79815 255 0 0
-2.625 -0.351243 4.59375 0 255 255
-2.625 0 4.35837 255 0 0
-1.96875 -0.990701 5.25 0 255 255
-1.96875 -0.65625 5.02587 255 0 0
-1.96875 -0.0317808 4.59375 0 255 255
-1.96875 0 4.56887 255 0 0
-1.32285 -0.65625 5.25 255 255 0
-1.87497 0 4.59375 255 255 0
-1.3125 -0.650892 5.25 0 255 255
-1.3125 0 4.74299 255 0 0
-0.65625 -0.553386 5.25 0 255 255
-0.65625 0 4.77269 255 0 0
0 -0.57009 5.25 0 255 255
0 0 4.73479 255 0 0
-4.82526 -3.9375 6.5625 255 255 0
-4.59375 -4.91319 7.21875 0 255 255
-4.59375 -4.59375 7.07407 255 0 0
-4.59375 -3.9375 6.70756 255 0 0
-4.40529 -4.59375 7.21875 255 255 0
-3.9375 -4.59375 7.48211 255 0 0
-3.9375 -4.04534 7.21875 0 255 255
-3.9375 -3.9375 7.11877 255 0 0
-4.90129 -3.28125 5.90625 255 255 0
-4.59375 -3.78108 6.5625 0 255 255
-4.59375 -3.28125 6.09895 255 0 0
-4.59375 -3.07346 5.90625 0 255 255
-4.59375 -2.625 5.49034 255 0 0
-3.9375 -3.33769 6.5625 0 255 255
-3.9375 -3.28125 6.51015 255 0 0
-3.9375 -2.63007 5.90625 0 255 255
-3.9375 -2.625 5.90154 255 0 0
-3.28125 -4.59375 7.61574 255 0 0
-3.68018 -3.9375 7.21875 255 255 0
-3.28125 -3.9375 7.27125 255 0 0
-2.625 -5.14734 7.875 0 255 255
-2.625 -4.59375 7.73912 255 0 0
-2.625 -3.9375 7.34881 255 0 0
-3.85396 -3.28125 6.5625 255 255 0
-3.92999 -2.625 5.90625 255 255 0
-3.28125 -3.03467 6.5625 0 255 255
-3.28125 -2.625 6.19704 255 0 0
-2.625 -2.75964 6.5625 0 255 255
-2.625 -2.625 6.44239 255 0 0
-3.28125 -3.85715 7.21875 0 255 255
-3.28125 -3.28125 6.78247 255 0 0
-2.625 -3.73846 7.21875 0 255 255
-2.625 -3.28125 6.91999 255 0 0
-3.9375 -1.96875 5.29293 255 0 0
-3.28125 -2.29904 5.90625 0 255 255
-3.28125 -1.96875 5.61161 255 0 0
-2.625 -2.024 5.90625 0 255 255
-2.625 -1.96875 5.85696 255 0 0
-2.625 -1.3125 5.27153 255 0 0
-1.96875 -4.64462 7.875 0 255 255
-1.96875 -4.59375 7.85518 255 0 0
-1.96875 -3.9375 7.42636 255 0 0
-1.80102 -4.59375 7.875 255 255 0
-1.3125 -4.5054 7.875 0 255 255
-1.3125 -3.9375 7.50391 255 0 0
-2.02144 -2.625 6.5625 255 255 0
-1.96875 -3.61978 7.21875 0 255 255
-1.96875 -3.28125 6.99754 255 0 0
-1.96875 -2.625 6.56873 255 0 0
-1.3125 -3.50109 7.21875 0 255 255
-1.3125 -3.28125 7.0751 255 0 0
-1.3125 -2.625 6.64628 255 0 0
-0.65625 -4.38671 7.875 0 255 255
-0.65625 -3.9375 7.58147 255 0 0
0 -4.26803 7.875 0 255 255
0 -3.9375 7.65902 255 0 0
-0.65625 -3.38241 7.21875 0 255 255
-0.65625 -3.28125 7.15265 255 0 0
-0.65625 -2.625 6.72383 255 0 0
0 -3.29722 7.21875 0 255 255
0 -3.28125 7.20764 255 0 0
0 -2.625 6.75127 255 0 0
-1.3125 -4.59375 7.93273 255 0 0
-0.65625 -4.59375 8.01029 255 0 0
0 -4.59375 8.08784 255 0 0
-2.49316 -1.96875 5.90625 255 255 0
-1.96875 -2.61547 6.5625 0 255 255
-1.96875 -1.96875 6.10231 255 0 0
-1.96875 -1.74897 5.90625 0 255 255
-1.96875 -1.3125 5.51688 255 0 0
-1.3125 -2.49678 6.5625 0 255 255
-1.3125 -1.96875 6.21746 255 0 0
-1.3125 -1.49248 5.90625 0 255 255
-1.3125 -1.3125 5.76223 255 0 0
-1.3125 -0.65625 5.25359 255 0 0
-0.65625 -2.3781 6.5625 0 255 255
-0.65625 -1.96875 6.29502 255 0 0
-0.65625 -1.39063 5.90625 0 255 255
-0.65625 -1.3125 5.85192 255 0 0
0 -2.35356 6.5625 0 255 255
0 -1.96875 6.2949 255 0 0
0 -1.40989 5.90625 0 255 255
0 -1.3125 5.83852 255 0 0
-0.65625 -0.65625 5.33872 255 0 0
0 -0.65625 5.32818 255 0 0
-16.6024 0.65625 -0.65625 255 255 0
-16.4062 0.65625 -0.77622 255 0 0
-16.7673 0.65625 0 255 255 0
-16.6081 1.3125 -0.65625 255 255 0
-16.4062 1.3125 -0.77965 255 0 0
-17.0172 1.3125 0 255 255 0
-15.75 0.65625 -1.2597 255 0 0
-15.75 1.3125 -1.23839 255 0 0
-16.5149 1.96875 -0.65625 255 255 0
-16.4062 1.96875 -0.738647 255 0 0
-17.0347 1.96875 0 255 255 0
-16.4062 2.31111 -0.65625 0 255 255
-17.0331 2.625 0 255 255 0
-16.4062 2.625 -0.580704 255 0 0
-15.75 1.96875 -1.18178 255 0 0
-16.3067 2.625 -0.65625 255 255 0
-15.75 2.625 -0.968026 255 0 0
-16.9635 3.28125 0 255 255 0
-16.4062 3.28125 -0.43718 255 0 0
-16.4771 3.9375 0 255 255 0
-16.4062 3.9375 -0.0649382 255 0 0
-15.985 3.28125 -0.65625 255 255 0
-15.75 3.28125 -0.726712 255 0 0
-15.75 3.46259 -0.65625 0 255 255
-15.75 3.9375 -0.355972 255 0 0
-16.4062 4.00766 0 0 255 255
-15.75 4.32866 0 0 255 255
-15.6899 0.65625 -1.3125 255 255 0
-15.0938 0.65625 -1.63431 255 0 0
-15.6657 1.3125 -1.3125 255 255 0
-15.0938 1.3125 -1.48849 255 0 0
-14.4375 0.65625 -1.75892 255 0 0
-14.4375 1.3125 -1.64938 255 0 0
-15.2168 1.96875 -1.3125 255 255 0
-15.0938 1.96875 -1.34267 255 0 0
-15.0938 2.10454 -1.3125 0 255 255
-14.4375 1.96875 -1.50357 255 0 0
-14.4925 2.625 -1.3125 255 255 0
-14.4375 2.625 -1.32618 255 0 0
-15.0938 2.625 -1.16294 255 0 0
-13.7812 0.0324378 -1.96875 0 255 255
-13.7812 0.65625 -1.87367 255 0 0
-13.7812 1.3125 -1.76908 255 0 0
-13.2375 0.65625 -1.96875 255 255 0
-13.125 0.65625 -1.98842 255 0 0
-13.125 0.779696 -1.96875 0 255 255
-13.125 1.3125 -1.88383 255 0 0
-13.7812 1.96875 -1.66446 255 0 0
-13.7812 2.625 -1.42714 255 0 0
-13.125 1.96875 -1.69231 255 0 0
-13.468 2.625 -1.3125 255 255 0
-13.125 2.46143 -1.3125 0 255 255
-13.125 2.625 -1.18028 255 0 0
-14.4375 2.6714 -1.3125 0 255 255
-15.0938 3.28125 -0.914526 255 0 0
-15.0938 3.72461 -0.65625 0 255 255
-15.0938 3.9375 -0.532234 255 0 0
-14.4375 3.28125 -1.03842 255 0 0
-14.4375 3.87681 -0.65625 0 255 255
-14.4375 3.9375 -0.606314 255 0 0
-15.0938 4.52013 0 0 255 255
-14.4375 4.37609 0 0 255 255
-13.7812 2.77177 -1.3125 0 255 255
-13.7812 3.28125 -0.893297 255 0 0
-13.7812 3.56935 -0.65625 0 255 255
-13.7812 3.9375 -0.131964 255 0 0
-13.1663 3.28125 -0.65625 255 255 0
-13.125 3.26189 -0.65625 0 255 255
-13.125 3.28125 -0.640318 255 0 0
-13.6517 3.9375 0 255 255 0
-13.125 3.59372 0 0 255 255
-13.7812 4.0098 0 0 255 255
-12.4688 0.65625 -2.10318 255 0 0
-12.4688 1.07121 -1.96875 0 255 255
-12.4688 1.3125 -1.87439 255 0 0
-11.8125 0.65625 -2.03972 255 0 0
-11.8125 0.837735 -1.96875 0 255 255
-11.8125 1.3125 -1.64788 255 0 0
-12.4688 1.96875 -1.41714 255 0 0
-12.4688 2.10448 -1.3125 0 255 255
-12.2192 1.96875 -1.3125 255 255 0
-11.8125 1.73692 -1.3125 0 255 255
-12.4688 2.625 -0.911221 255 0 0
-11.8125 1.96875 -1.12927 255 0 0
-12.1512 2.625 -0.65625 255 255 0
-11.8125 2.34076 -0.65625 0 255 255
-11.9704 2.625 0 255 255 0
-11.8125 2.49256 0 0 255 255
-11.1971 0.65625 -1.96875 255 255 0
-11.1562 0.643368 -1.96875 0 255 255
-11.1562 0.65625 -1.95109 255 0 0
-11.1562 1.3125 -1.3434 255 0 0
-10.5 0.436283 -1.96875 0 255 255
-10.5 0.65625 -1.66712 255 0 0
-11.0897 1.3125 -1.3125 255 255 0
-10.5 1.03142 -1.3125 0 255 255
-10.5 1.3125 -0.834348 255 0 0
-11.1562 1.3516 -1.3125 0 255 255
-11.3692 1.96875 -0.65625 255 255 0
-11.1562 1.79007 -0.65625 0 255 255
-11.1882 1.96875 0 255 255 0
-11.1562 1.94198 0 0 255 255
-10.5 1.3588 -0.65625 0 255 255
-10.5 1.51188 0 0 255 255
-12.4688 2.89145 -0.65625 0 255 255
-12.7526 3.28125 0 255 255 0
-12.4688 3.04314 0 0 255 255
-9.84375 0.229198 -1.96875 0 255 255
-9.84375 0.65625 -1.39372 255 0 0
-9.84375 0.746377 -1.3125 0 255 255
-9.1875 0.0221132 -1.96875 0 255 255
-9.63626 0.65625 -1.3125 255 255 0
-9.1875 0.500693 -1.3125 0 255 255
-10.3868 1.3125 -0.65625 255 255 0
-9.84375 1.09031 -0.65625 0 255 255
-10.0744 1.3125 0 255 255 0
-9.84375 1.20444 0 0 255 255
-9.1875 0.65625 -1.13685 255 0 0
-9.1875 0.822959 -0.65625 0 255 255
-9.1875 0.897 0 0 255 255
-8.53125 0.332626 -1.3125 0 255 255
-7.875 0.235931 -1.3125 0 255 255
-8.77788 0.65625 -0.65625 255 255 0
-8.53125 0.645655 -0.65625 0 255 255
-8.53125 0.65625 -0.617407 255 0 0
-8.53125 0.690351 0 0 255 255
-7.875 0.630612 -0.65625 0 255 255
-7.875 0.65625 -0.56226 255 0 0
-7.875 0.658262 0 0 255 255
-7.90055 2.625 -1.3125 255 255 0
-7.875 2.61554 -1.3125 0 255 255
-7.875 2.625 -1.32446 255 0 0
-8.7208 2.625 -0.65625 255 255 0
-8.53125 2.4722 -0.65625 0 255 255
-8.53125 2.625 -0.998569 255 0 0
-8.93461 2.625 0 255 255 0
-8.53125 2.31901 0 0 255 255
-7.875 2.22156 -0.65625 0 255 255
-7.875 2.06837 0 0 255 255
-8.11211 3.9375 -2.625 255 255 0
-7.875 3.70947 -2.625 0 255 255
-7.875 3.9375 -2.84118 255 0 0
-8.7945 4.59375 -2.625 255 255 0
-8.53125 4.34058 -2.625 0 255 255
-8.53125 4.59375 -2.86501 255 0 0
-8.97866 5.25 -2.625 255 255 0
-8.53125 5.25 -3.16032 255 0 0
-7.875 4.59375 -3.24229 255 0 0
-8.30775 5.25 -3.28125 255 255 0
-7.875 4.68423 -3.28125 0 255 255
-7.875 5.25 -3.5154 255 0 0
-9.55169 3.9375 -1.3125 255 255 0
-9.1875 3.58726 -1.3125 0 255 255
-9.1875 3.9375 -1.64454 255 0 0
-9.96916 3.9375 -0.65625 255 255 0
-9.84375 3.72782 -0.65625 0 255 255
-9.84375 3.9375 -1.03512 255 0 0
-10.1053 3.9375 0 255 255 0
-9.84375 3.51784 0 0 255 255
-9.38903 3.28125 -0.65625 255 255 0
-9.1875 3.08334 -0.65625 0 255 255
-9.1875 3.28125 -1.02239 255 0 0
-9.60285 3.28125 0 255 255 0
-9.1875 2.87335 0 0 255 255
-9.85397 5.25 -1.3125 255 255 0
-9.84375 5.1813 -1.3125 0 255 255
-9.84375 5.25 -1.32782 255 0 0
-9.31872 4.59375 -1.96875 255 255 0
-9.1875 4.27948 -1.96875 0 255 255
-9.1875 4.59375 -2.16551 255 0 0
-9.75637 4.59375 -1.3125 255 255 0
-9.41632 5.25 -1.96875 255 255 0
-9.1875 5.25 -2.31186 255 0 0
-10.0626 4.59375 -0.65625 255 255 0
-9.84375 4.59375 -1.18147 255 0 0
-10.1987 4.59375 0 255 255 0
-10.156 5.25 -0.65625 255 255 0
-10.2921 5.25 0 255 255 0
-8.86931 3.28125 -1.3125 255 255 0
-8.53125 2.95614 -1.3125 0 255 255
-8.53125 3.28125 -1.62072 255 0 0
-8.8319 3.9375 -1.96875 255 255 0
-8.53125 3.64836 -1.96875 0 255 255
-8.53125 3.9375 -2.24286 255 0 0
-8.14952 3.28125 -1.96875 255 255 0
-7.875 3.13479 -1.96875 0 255 255
-7.875 3.28125 -2.15386 255 0 0
-5.25 0.212547 -2.625 0 255 255
-7.21875 0.193894 -1.3125 0 255 255
-6.5625 0.168576 -1.3125 0 255 255
-7.21875 0.545817 -0.65625 0 255 255
-7.83384 0.65625 0 255 255 0
-7.21875 0.626174 0 0 255 255
-7.21875 0.65625 -0.0986188 255 0 0
-7.21875 0.65625 -0.495563 255 0 0
-6.5625 0.502486 -0.65625 0 255 255
-6.5625 0.49642 0 0 255 255
-7.21875 2.37251 -1.3125 0 255 255
-7.21875 2.625 -1.63161 255 0 0
-6.5625 2.12947 -1.3125 0 255 255
-6.5625 2.625 -1.93877 255 0 0
-7.61415 1.96875 0 255 255 0
-7.21875 1.81774 0 0 255 255
-7.21875 1.96875 -0.646929 255 0 0
-7.21875 1.97093 -0.65625 0 255 255
-7.21305 1.96875 -0.65625 255 255 0
-6.5625 1.72029 -0.65625 0 255 255
-6.5625 1.96875 -1.10937 255 0 0
-6.5625 1.5671 0 0 255 255
-5.90625 0.0980502 -1.96875 0 255 255
-5.90625 0.223195 -1.3125 0 255 255
-5.25 0.353111 -1.96875 0 255 255
-5.25 0.355563 -1.3125 0 255 255
-5.90625 0.391916 -0.65625 0 255 255
-5.90625 0.389633 0 0 255 255
-5.25 0.458569 -0.65625 0 255 255
-5.25148 0.65625 0 255 255 0
-5.25 0.65625 -0.207536 255 0 0
-5.49476 1.3125 -0.65625 255 255 0
-5.25 1.21902 -0.65625 0 255 255
-5.25 1.3125 -0.894281 255 0 0
-5.89586 1.3125 0 255 255 0
-5.25 1.06583 0 0 255 255
-5.25 0.657902 0 0 255 255
-6.12851 1.96875 -1.3125 255 255 0
-5.90625 1.88644 -1.3125 0 255 255
